74.00542450 6.42433119 -43.78817368 242 193 78
74.00649261 6.27003765 -43.14673233 242 193 78
74.00512695 6.29621744 -43.65751648 242 193 78
73.97941589 6.46850204 -43.62966156 242 193 78
74.00111389 6.33686972 -44.25651550 242 193 78
73.99566650 6.06822872 -42.89323807 242 193 78
73.99661255 6.08659220 -43.18775940 242 193 78
74.00130463 6.02907991 -44.04132843 242 193 78
73.99300385 6.12040949 -43.70391083 242 193 78
73.99842072 6.13750029 -43.90699768 242 193 78
73.99840546 6.15305138 -44.10260010 242 193 78
73.98300171 6.16742373 -44.32218552 242 193 78
73.99260712 6.26219225 -44.10303116 242 193 78
74.00094604 6.34230280 -43.16429138 242 193 78
74.00467682 6.35267448 -43.38184357 242 193 78
74.00995636 5.97772312 -43.32206726 242 193 78
74.00149536 6.17637157 -43.59666061 242 193 78
74.00434875 6.37074947 -43.78857803 242 193 78
74.00276947 6.38000107 -43.96878815 242 193 78
74.01103973 6.05660629 -44.00225830 242 193 78
74.00317383 6.22794628 -44.16704559 242 193 78
74.00217438 6.46877384 -43.04566574 242 193 78
74.00759888 6.26805449 -43.43975830 242 193 78
74.01020050 6.28269720 -43.66677094 242 193 78
74.00858307 6.29684687 -43.88282776 242 193 78
74.00395966 6.31005287 -44.08584595 242 193 78
73.99533844 6.46139717 -43.28365326 242 193 78
73.99648285 6.47167397 -43.73752975 242 193 78
74.00642395 6.35295677 -43.54913330 242 193 78
74.00437927 6.38291025 -44.14834213 242 193 78
73.99888611 6.11009121 -43.47097778 242 193 78
74.00756073 6.24946547 -43.01242828 242 193 78
73.98567963 6.03664970 -44.24415970 242 193 78
74.00670624 6.14468908 -43.89644623 242 193 78
73.99813843 6.16029549 -44.11004257 242 193 78
74.00072479 6.27219820 -43.76141739 242 193 78
73.99314117 6.40727282 -43.31076431 242 193 78
73.99262238 6.40505171 -43.54920578 242 193 78
74.00131989 6.40618038 -43.73804092 242 193 78
73.99538422 6.40493774 -43.95205688 242 193 78
73.99839783 6.40902328 -44.28845215 242 193 78
74.00594330 6.17341328 -43.25036621 242 193 78
74.00664520 6.19003391 -43.47518158 242 193 78
74.00414276 6.20636320 -43.68772507 242 193 78
74.00347137 6.23703861 -44.04973221 242 193 78
73.99900818 6.25165462 -44.21802139 242 193 78
74.01058960 6.15830183 -43.06840515 242 193 78
74.01158905 6.19703150 -43.58012390 242 193 78
74.01419830 6.40389395 -43.86780548 242 193 78
74.01011658 6.41310167 -44.05561066 242 193 78
74.00843048 6.42171669 -44.22292709 242 193 78
73.99234009 6.45321894 -43.46573257 242 193 78
74.00878906 6.41179895 -43.09151459 242 193 78
74.00276947 6.42440319 -43.59315491 242 193 78
73.99411774 6.44778061 -44.18124771 242 193 78
74.00863647 6.10052252 -43.65213013 242 193 78
74.00659180 6.25381708 -43.54307175 242 193 78
74.00580597 6.40451670 -43.12871933 242 193 78
73.99442291 6.16087961 -44.27145767 242 193 78
74.00402069 6.27877378 -43.95838547 242 193 78
74.00356293 6.29056263 -44.13800049 242 193 78
74.00189972 6.30308342 -44.30340576 242 193 78
74.00053406 6.42116976 -44.16503906 242 193 78
73.99385071 6.02941847 -44.06859207 242 193 78
74.00911713 6.16242647 -43.07365036 242 193 78
74.00334930 6.18036604 -43.34568787 242 193 78
74.00640106 6.19792080 -43.56496811 242 193 78
74.00730896 6.21529150 -43.76783752 242 193 78
74.00477600 6.23130608 -43.96197128 242 193 78
74.00221252 6.40489721 -44.03337860 242 193 78
74.00100708 6.09878063 -44.24873734 242 193 78
74.00820923 6.26354694 -44.28332520 242 193 78
74.00682068 6.32127571 -43.51446152 242 193 78
74.00476837 6.34560013 -43.92154694 242 193 78
74.00640106 6.32264566 -43.14186096 242 193 78
74.00703430 6.34410763 -43.60555267 242 193 78
74.00212860 6.36578131 -44.00025558 242 193 78
74.00262451 6.03608942 -43.30353546 242 193 78
74.00466919 6.06019497 -43.54203033 242 193 78
74.00496674 6.08215475 -43.75909042 242 193 78
74.00183868 6.10353851 -43.96533585 242 193 78
74.00097656 6.23473787 -43.66206741 242 193 78
73.99761200 6.24685764 -43.86861038 242 193 78
73.99519348 6.25910330 -44.05607224 242 193 78
73.99917603 6.39753008 -44.06435776 242 193 78
73.98466492 5.99164391 -44.16751099 242 193 78
74.01198578 5.97364759 -43.14199066 242 193 78
74.00754547 6.19340706 -43.55535507 242 193 78
74.00928497 6.38742542 -43.66595078 242 193 78
74.00267029 6.39308119 -43.85133743 242 193 78
74.00285339 6.07205200 -44.02426529 242 193 78
74.00878143 6.23799324 -44.08459091 242 193 78
74.00027466 6.40630960 -44.15380478 242 193 78
74.01343536 6.17340708 -43.11764908 242 193 78
74.00844574 6.20767641 -43.60251999 242 193 78
74.00801086 6.22463608 -43.80537415 242 193 78
74.00815582 6.24154091 -43.98630524 242 193 78
74.00458527 6.25699186 -44.16002274 242 193 78
74.00186157 6.43493700 -44.25364685 242 193 78
74.00907135 6.30115557 -43.62652206 242 193 78
74.00730133 6.32688713 -43.99726486 242 193 78
74.00317383 6.07875824 -43.43040085 242 193 78
74.00695038 6.10084200 -43.64124298 242 193 78
74.00600433 6.12143707 -43.84345245 242 193 78
74.00128174 6.14129353 -44.03778076 242 193 78
74.00654602 6.16158915 -44.18845749 242 193 78
74.00360107 6.28427410 -43.92235184 242 193 78
73.99987793 6.29551363 -44.09734726 242 193 78
73.99756622 6.30662298 -44.25467682 242 193 78
73.99025726 6.42999029 -44.13352585 242 193 78
73.99423981 6.00444460 -43.17840576 242 193 78
73.99736023 6.03888750 -43.63788605 242 193 78
73.99397278 6.07035208 -44.03489304 242 193 78
74.01045990 5.98523712 -43.00723267 242 193 78
74.00801849 6.03870869 -43.48785782 242 193 78
74.01160431 6.06341743 -43.67884445 242 193 78
74.00543976 6.08647251 -43.87916183 242 193 78
74.00862885 6.10865879 -44.03682327 242 193 78
74.01660919 6.13085938 -43.10234451 242 193 78
74.01712799 6.17554760 -43.56783676 242 193 78
74.01454163 6.37641525 -43.75513077 242 193 78
74.01259613 6.40119743 -44.08420944 242 193 78
74.01744080 6.36022329 -43.05752563 242 193 78
74.00865173 6.42063761 -44.06295776 242 193 78
74.02294922 6.26171207 -43.02052689 242 193 78
73.98404694 6.45315647 -43.26743698 242 193 78
73.98725128 6.46023178 -43.46923828 242 193 78
74.01190186 6.33842802 -44.05569077 242 193 78
74.00896454 6.05976677 -43.36412430 242 193 78
74.00940704 6.01866817 -44.09615326 242 193 78
74.00720978 6.12479591 -43.96918106 242 193 78
74.01187897 6.14483547 -44.12320709 242 193 78
74.00801849 6.22607327 -43.80160904 242 193 78
74.00630188 6.32201338 -43.36075592 242 193 78
74.00953674 6.32821894 -43.56608200 242 193 78
74.00762177 6.33358765 -43.76519012 242 193 78
74.00592804 6.34623337 -44.10959244 242 193 78
74.00383759 6.06535292 -42.89257431 242 193 78
74.00956726 5.93354607 -43.22567368 242 193 78
74.00550842 6.13990021 -43.54372025 242 193 78
74.00148010 6.18244886 -43.90015411 242 193 78
74.00181580 6.20312881 -44.05073929 242 193 78
74.00763702 6.22371769 -44.17517090 242 193 78
74.01119232 6.13138103 -42.96323776 242 193 78
74.01297760 6.21380281 -43.64975739 242 193 78
74.01030731 6.23829269 -43.84494400 242 193 78
74.00739288 6.41861439 -43.96799850 242 193 78
74.00746918 6.45057249 -44.25341797 242 193 78
74.00388336 6.38729191 -43.38978577 242 193 78
74.00719452 6.40239048 -43.58003998 242 193 78
74.00148773 6.42831850 -43.93910980 242 193 78
73.98424530 6.44940615 -44.27449417 242 193 78
74.00803375 6.03263903 -43.37948227 242 193 78
74.00306702 6.05684042 -43.61392975 242 193 78
74.00288391 6.10063457 -43.99590302 242 193 78
74.01351166 5.93463707 -42.94993591 242 193 78
74.01143646 5.97617435 -43.20433044 242 193 78
74.01172638 6.16612005 -43.42998123 242 193 78
74.00402069 6.19129753 -43.63720322 242 193 78
74.00578308 6.21567297 -43.80117416 242 193 78
74.01169586 6.02005196 -44.13941574 242 193 78
74.01753235 6.14180136 -44.10889816 242 193 78
74.00714111 6.16825676 -44.27407074 242 193 78
74.01626587 6.29197359 -43.06175232 242 193 78
74.01588440 6.34735584 -43.50648499 242 193 78
74.00849152 6.41856670 -44.04750061 242 193 78
74.01187897 6.29356480 -42.95344162 242 193 78
74.00352478 6.31561852 -43.22318649 242 193 78
74.00341797 6.33783388 -43.43770218 242 193 78
74.01402283 6.33559036 -44.09238434 242 193 78
74.00326538 6.42762566 -43.45613480 242 193 78
73.99414063 6.43876886 -43.68113327 242 193 78
74.00231934 6.43759680 -44.26649857 242 193 78
74.01163483 5.99035978 -42.91179657 242 193 78
74.00678253 6.08247471 -43.40958023 242 193 78
74.01000977 6.12368965 -43.60383224 242 193 78
74.00636292 6.08327770 -44.02157974 242 193 78
74.00942993 6.12420034 -44.17168427 242 193 78
74.00778198 6.23190928 -44.11649323 242 193 78
74.00288391 6.26365376 -44.26886749 242 193 78
74.02153015 6.24438334 -43.40575790 242 193 78
74.02159119 6.28059196 -43.60259628 242 193 78
74.01516724 6.31245089 -43.79573059 242 193 78
74.00717163 6.37771749 -43.87191772 242 193 78
74.01663971 6.37884045 -43.57062531 242 193 78
74.00959778 6.43108702 -44.16730499 242 193 78
74.02258301 6.45307732 -44.07054901 242 193 78
74.00616455 6.00912523 -43.33933640 242 193 78
74.00888062 6.10101223 -43.70852661 242 193 78
74.00545502 6.14183950 -43.88411331 242 193 78
74.00234222 6.17933702 -44.04244614 242 193 78
74.00843048 6.24996138 -44.29996109 242 193 78
74.00523376 6.45134544 -43.33901215 242 193 78
73.99774170 6.29617691 -43.35343170 242 193 78
73.99913788 6.33775949 -43.54656982 242 193 78
73.99567413 6.37595797 -43.73503494 242 193 78
73.99530792 6.35073519 -43.49938583 242 193 78
73.99684906 6.31668711 -43.24608994 242 193 78
74.00874329 6.45066404 -44.01813889 242 193 78
73.99298096 6.42047167 -43.86716843 242 193 78
73.99905396 6.38774681 -43.65376663 242 193 78
73.99790192 6.34068871 -43.42980576 242 193 78
73.99475098 6.37330818 -43.64619446 242 193 78
73.99680328 6.40508986 -43.83081436 242 193 78
73.99859619 5.96461916 -43.30175018 242 193 78
73.99701691 6.02555466 -43.50999069 242 193 78
73.99228668 6.08283806 -43.70982742 242 193 78
73.99415588 6.16650343 -43.08716965 242 193 78
73.99467468 6.13543415 -43.87426376 242 193 78
73.99657440 6.21521902 -43.29183960 242 193 78
73.99397278 6.18404913 -44.03374481 242 193 78
73.99530029 6.24281454 -43.86060715 242 193 78
73.99269104 6.30195951 -43.67366791 242 193 78
73.99986267 6.27518225 -44.29512024 242 193 78
73.99913788 6.32660913 -44.14511108 242 193 78
73.99662781 6.36539459 -44.27989960 242 193 78
73.99692535 6.44750977 -44.24760056 242 193 78
73.99964142 6.29610062 -43.25693130 242 193 78
73.99864960 6.34365273 -43.45675659 242 193 78
74.00088501 6.39007235 -43.63230515 242 193 78
73.99697113 6.34021235 -43.46990967 242 193 78
73.99922180 6.28274202 -43.29344559 242 193 78
73.99835968 6.20862293 -43.10301590 242 193 78
73.99349976 6.42281055 -43.83484650 242 193 78
73.99884033 6.36893368 -43.69042587 242 193 78
74.00283051 6.29998922 -43.53898621 242 193 78
73.99983215 6.34036160 -43.73838043 242 193 78
73.99422455 6.37779617 -43.92961884 242 193 78
74.00966644 6.45217180 -44.20236588 242 193 78
73.97768402 6.04766083 -44.29558945 242 193 78
73.99652863 6.11984062 -43.26853561 242 193 78
74.00134277 6.18444490 -43.45864487 242 193 78
74.00428009 6.24324465 -43.63444519 242 193 78
73.99325562 6.29557085 -43.83086395 242 193 78
73.99326324 6.35330582 -43.60256577 242 193 78
74.00437927 6.41357279 -43.33438110 242 193 78
73.99924469 6.39582300 -44.11387253 242 193 78
73.99643707 6.44085169 -44.25297165 242 193 78
74.00302887 6.45688200 -43.17762756 242 193 78
73.99371338 6.29017448 -42.95763397 242 193 78
73.99388123 6.34203339 -43.19828033 242 193 78
73.99692535 6.38960266 -43.40856171 242 193 78
73.98928833 6.02657032 -44.03438950 242 193 78
73.99101257 6.03060722 -44.10183334 242 193 78
73.99325562 6.02629757 -44.18691635 242 193 78
73.98769379 6.02213335 -44.17188263 242 193 78
73.98219299 6.02239132 -43.56035233 242 193 78
73.98194885 6.05120087 -43.28916168 242 193 78
73.98154449 6.11099672 -44.10211563 242 193 78
73.98358917 6.14124584 -43.88843155 242 193 78
73.97904968 6.16854858 -43.67158508 242 193 78
73.99988556 6.21827602 -44.32310486 242 193 78
73.98443604 6.24499416 -44.17353821 242 193 78
73.98882294 6.29224968 -44.29332352 242 193 78
73.98638153 6.36036015 -44.25135803 242 193 78
73.98273468 6.30866289 -43.14007187 242 193 78
73.98607635 6.36635685 -43.33621979 242 193 78
73.97821045 6.29735851 -43.26616669 242 193 78
73.98236847 6.22145653 -43.18247986 242 193 78
74.00388336 6.47469234 -43.65113068 242 193 78
73.98171234 6.27729845 -43.39774704 242 193 78
73.98707581 6.18994761 -43.32664871 242 193 78
73.98849487 6.45092487 -43.79220200 242 193 78
73.98075867 6.37686682 -43.76964569 242 193 78
73.98498535 6.42246532 -43.92484665 242 193 78
73.98277283 6.38178062 -44.05887985 242 193 78
73.98579407 6.01285267 -44.10567474 242 193 78
73.98149109 6.02573872 -44.20225525 242 193 78
73.98619080 5.91529036 -44.13932419 242 193 78
73.98233032 6.02306986 -44.16806030 242 193 78
73.97753143 6.03144455 -43.27313232 242 193 78
73.97802734 6.06616592 -42.96342087 242 193 78
73.97787476 6.12462330 -43.90567017 242 193 78
73.97307587 6.16033936 -43.65837479 242 193 78
73.98432159 6.19676924 -43.37330627 242 193 78
73.97987366 6.23731756 -44.18043518 242 193 78
73.98116302 6.25301981 -43.56820679 242 193 78
73.98588562 6.28999758 -44.29561615 242 193 78
73.97681427 6.30578899 -43.75075912 242 193 78
73.98421478 6.33860588 -43.49785233 242 193 78
73.97973633 6.38556719 -43.68666840 242 193 78
73.97901917 6.43111944 -43.85463333 242 193 78
73.98893738 6.10964966 -43.00046158 242 193 78
73.98942566 6.17735052 -43.21638107 242 193 78
73.99343872 6.23946047 -43.40850449 242 193 78
73.98523712 6.18120623 -43.36108780 242 193 78
73.98760986 5.97048664 -43.02201080 242 193 78
73.98847961 6.23865414 -43.54595184 242 193 78
73.99011230 6.03684998 -43.25207138 242 193 78
73.98253632 6.29103374 -43.73850632 242 193 78
73.99217987 6.09731293 -43.45937729 242 193 78
73.98371124 6.33971405 -43.90028763 242 193 78
73.98806763 6.15201712 -43.66539764 242 193 78
73.98957062 6.38605213 -44.04074860 242 193 78
73.98840332 6.32372713 -44.02205276 242 193 78
73.98962402 6.25097895 -44.00661850 242 193 78
73.99343872 6.29533529 -44.15022659 242 193 78
73.98931122 6.02131701 -44.14170074 242 193 78
73.98722839 6.04727602 -44.23421860 242 193 78
73.99096680 5.96595669 -44.17707825 242 193 78
73.98493195 5.94409513 -44.20086670 242 193 78
73.98806763 5.95687962 -43.34363937 242 193 78
73.98909760 6.02024221 -43.53920364 242 193 78
73.98191833 6.07913589 -43.73844147 242 193 78
73.98744965 6.13478422 -43.89272308 242 193 78
73.98698425 6.18429136 -44.04817963 242 193 78
73.99109650 6.23260069 -44.18487930 242 193 78
73.99341583 6.13736629 -43.27637863 242 193 78
73.99113464 6.20127487 -43.47571564 242 193 78
73.99597168 6.26323986 -43.64353180 242 193 78
73.99022675 6.31768703 -43.82014465 242 193 78
73.98828888 6.36256361 -43.56575012 242 193 78
73.99214935 6.40683699 -43.30293274 242 193 78
73.98840332 6.41801834 -44.11618042 242 193 78
73.98715210 6.45446062 -43.50951004 242 193 78
74.00123596 6.37658691 -43.04044342 242 193 78
74.00268555 5.96613550 -43.00621414 242 193 78
74.00423431 6.04053164 -43.21653366 242 193 78
74.00334930 6.10750532 -43.41400909 242 193 78
74.00056458 6.17054367 -43.60407639 242 193 78
73.99759674 6.12613153 -43.55631256 242 193 78
74.00212097 5.94963837 -43.28816223 242 193 78
73.99307251 6.18299055 -43.74444199 242 193 78
74.00173950 6.01261520 -43.49330521 242 193 78
73.99380493 6.23654890 -43.90273285 242 193 78
73.99774170 6.07159376 -43.69124603 242 193 78
73.99593353 6.28578043 -44.05189514 242 193 78
73.99788666 6.23564959 -44.03343964 242 193 78
73.99871063 6.17449474 -44.02639771 242 193 78
74.00187683 6.22117853 -44.16881943 242 193 78
73.99856567 6.00119448 -44.02291107 242 193 78
73.99674988 6.04389906 -44.11008453 242 193 78
73.99532318 6.02071667 -44.07355881 242 193 78
73.99761963 5.98979044 -44.03665543 242 193 78
74.00101471 6.04246092 -44.17747498 242 193 78
73.99546051 6.00302362 -44.13257217 242 193 78
73.99150848 6.05748034 -44.27511597 242 193 78
74.00220490 6.05038786 -44.11275101 242 193 78
74.00363922 5.97589636 -43.32232666 242 193 78
73.99420929 6.04059362 -43.53969193 242 193 78
74.00276947 6.11528778 -44.16170502 242 193 78
73.99246979 6.09997368 -43.72147751 242 193 78
73.99611664 6.11331892 -43.55548859 242 193 78
73.99597168 6.19039583 -44.16073227 242 193 78
73.99644470 6.23895025 -44.29064560 242 193 78
73.99520111 6.25527525 -44.17616653 242 193 78
73.99790955 6.29982805 -44.30434799 242 193 78
74.00142670 6.10336685 -42.94275665 242 193 78
73.99808502 6.28343248 -43.07258606 242 193 78
73.99870300 6.34155989 -43.28229523 242 193 78
74.00153351 6.40431261 -43.87865448 242 193 78
74.00038910 6.44604540 -43.65116501 242 193 78
73.99608612 6.40587616 -43.12222290 242 193 78
74.00672913 6.46054459 -43.30615997 242 193 78
74.00170135 6.38743067 -43.30772018 242 193 78
74.00245667 6.35296059 -43.50531387 242 193 78
74.00255585 6.43851280 -43.86883163 242 193 78
74.00086212 6.06955767 -43.33253098 242 193 78
73.99925232 6.13504076 -43.52198410 242 193 78
73.99764252 6.10472727 -43.46810532 242 193 78
73.99950409 5.95157385 -43.19080353 242 193 78
73.99395752 6.16302729 -43.65779877 242 193 78
74.00176239 6.01679850 -43.39752197 242 193 78
73.99380493 6.21779013 -43.82197571 242 193 78
73.99765778 6.07633352 -43.60383987 242 193 78
73.99417877 6.26899815 -43.97590256 242 193 78
73.99464417 6.22988129 -43.95943069 242 193 78
74.00149536 6.39687681 -44.26044464 242 193 78
73.99914551 6.27723885 -44.10027313 242 193 78
73.99824524 6.22690248 -44.10264969 242 193 78
74.00225830 6.27085304 -44.23723221 242 193 78
73.99030304 6.05856323 -43.78261948 242 193 78
73.99253082 6.11559153 -43.93233871 242 193 78
73.99684143 6.02898312 -43.64076614 242 193 78
73.99196625 6.16943026 -44.07922745 242 193 78
73.99391937 6.15748072 -44.02637863 242 193 78
73.99785614 6.13631630 -43.97312546 242 193 78
73.99848938 6.18443537 -44.12528992 242 193 78
74.00080109 6.22982025 -44.26121521 242 193 78
74.00070953 6.01770306 -43.59865189 242 193 78
73.99346924 6.03432512 -43.43517303 242 193 78
74.00250244 6.04800129 -43.25207901 242 193 78
73.99690247 6.14114094 -43.92149353 242 193 78
73.99418640 6.11121082 -43.47273636 242 193 78
73.99665833 6.19753933 -44.06190872 242 193 78
73.99612427 6.16918325 -43.64863205 242 193 78
73.99712372 6.24948645 -44.19317627 242 193 78
73.99543762 6.22214603 -43.81932831 242 193 78
73.99741364 6.22471046 -43.70669556 242 193 78
73.99566650 6.30982208 -44.21086121 242 193 78
74.00063324 6.31843901 -44.11147308 242 193 78
73.99996948 6.35933399 -44.17213821 242 193 78
73.99841309 6.32548809 -43.15513611 242 193 78
74.00219727 6.38280487 -43.34899521 242 193 78
74.00337982 6.41539478 -43.11779785 242 193 78
73.99822998 6.44762421 -43.91014862 242 193 78
74.00299835 6.28534842 -43.00609970 242 193 78
74.00444794 6.17291021 -42.95838547 242 193 78
74.00295258 6.09888220 -42.96620560 242 193 78
74.01351166 6.46008921 -43.55248260 242 193 78
74.00492859 6.40305376 -43.56046677 242 193 78
74.00505829 6.34266424 -43.56709671 242 193 78
74.00501251 6.27113771 -43.58538818 242 193 78
74.00680542 6.31999159 -43.76194000 242 193 78
74.00239563 6.40577793 -44.08499908 242 193 78
73.99971771 5.98543692 -43.04022217 242 193 78
74.00096130 5.95896149 -42.97145462 242 193 78
74.00700378 6.14438391 -43.48732376 242 193 78
74.00025940 6.12315369 -43.43648529 242 193 78
74.00076294 6.09635115 -43.39207458 242 193 78
74.00070953 6.26206446 -43.82103729 242 193 78
74.00477600 6.15668774 -43.56926727 242 193 78
73.99927521 6.31550169 -43.96759415 242 193 78
73.99700165 6.21106815 -43.75538254 242 193 78
73.99604034 6.26109743 -43.91463470 242 193 78
74.00272369 6.41256571 -44.22451019 242 193 78
73.99799347 6.30902052 -44.05973816 242 193 78
74.00185394 6.35405588 -44.19131470 242 193 78
74.00511932 5.97928333 -43.14116669 242 193 78
74.00444794 6.05430603 -43.33602905 242 193 78
74.00475311 6.12135935 -43.51115036 242 193 78
73.99894714 6.12656736 -43.38744736 242 193 78
74.00053406 6.05030012 -42.93470001 242 193 78
73.99549103 6.18834782 -43.57241821 242 193 78
74.00493622 6.11651039 -43.15408707 242 193 78
73.99393463 6.24533081 -43.74153519 242 193 78
74.00622559 6.17775536 -43.35896301 242 193 78
73.99943542 6.29803753 -43.88283157 242 193 78
74.00074768 6.29446554 -43.80476379 242 193 78
74.00401306 6.39627123 -44.22978210 242 193 78
73.99839020 6.34257984 -43.96303558 242 193 78
74.00224304 6.32971478 -43.89994812 242 193 78
74.00061798 6.37239313 -44.05578613 242 193 78
74.00596619 6.41459322 -44.18844604 242 193 78
74.00291443 6.33646393 -43.05766678 242 193 78
74.00361633 6.41521358 -43.06592178 242 193 78
74.00479889 6.39967251 -43.16935730 242 193 78
74.00643158 6.35568476 -43.15406799 242 193 78
74.00946045 6.30080175 -43.15590668 242 193 78
74.00723267 6.39787006 -43.56200027 242 193 78
73.99975586 6.30312347 -42.97887802 242 193 78
74.00247192 6.35074091 -43.10332870 242 193 78
74.00388336 6.32855988 -43.03890991 242 193 78
74.00759125 6.38070154 -43.24869919 242 193 78
74.00376129 6.45918941 -43.30488586 242 193 78
73.99081421 6.44758606 -43.06218338 242 193 78
73.99717712 6.44429302 -43.13181305 242 193 78
73.99316406 6.45140934 -43.14636230 242 193 78
73.99405670 6.40014315 -43.13362122 242 193 78
73.99214172 6.43300343 -43.29634476 242 193 78
73.99948120 6.46537495 -43.42920685 242 193 78
73.98786163 6.26700068 -42.98843002 242 193 78
73.98410797 6.29976559 -43.09716034 242 193 78
73.98406219 6.27989340 -43.05744934 242 193 78
73.99337006 6.39435387 -43.42399597 242 193 78
73.98745728 6.31879759 -43.21095657 242 193 78
73.99240112 6.43128633 -43.55379486 242 193 78
73.98830414 6.35398722 -43.35874557 242 193 78
73.99076080 6.32304573 -43.33544540 242 193 78
73.99561310 6.44673777 -43.64007187 242 193 78
73.99739838 6.42153454 -43.61806107 242 193 78
73.99760437 6.45114374 -43.74230194 242 193 78
73.99494171 6.44192171 -43.85774612 242 193 78
73.98657990 6.33608627 -43.11872101 242 193 78
73.99019623 6.37864399 -43.26066589 242 193 78
73.99127960 6.41784525 -43.39909744 242 193 78
73.98455811 6.42742395 -43.32205200 242 193 78
73.98886108 6.39179850 -43.01005173 242 193 78
73.98964691 6.46286535 -43.45207596 242 193 78
73.99577332 6.46538019 -43.37765503 242 193 78
73.99076080 6.38742208 -43.06760406 242 193 78
73.99153900 6.42988873 -43.21465302 242 193 78
73.98639679 6.37596226 -43.20263290 242 193 78
73.98651886 6.31663752 -43.19933701 242 193 78
73.98677826 6.24791813 -43.20218658 242 193 78
74.00302124 6.45529842 -43.44825363 242 193 78
73.99411011 6.39397764 -43.46603775 242 193 78
73.99474335 6.42841578 -43.59053802 242 193 78
73.99620819 6.39251614 -43.72466660 242 193 78
73.98702240 6.09015703 -42.95635986 242 193 78
73.98421478 6.14435720 -43.11352539 242 193 78
73.98706055 6.19593287 -43.24999619 242 193 78
73.98191833 6.17103958 -43.21757889 242 193 78
73.98730469 6.05481577 -43.01075363 242 193 78
73.98723602 6.21792698 -43.34831238 242 193 78
73.98500061 6.10281706 -43.17111588 242 193 78
73.98983002 6.26157951 -43.47320557 242 193 78
73.98879242 6.14784479 -43.31317520 242 193 78
73.99116516 6.30314255 -43.59299469 242 193 78
73.98902893 6.18953466 -43.45120621 242 193 78
73.99358368 6.34112787 -43.70536041 242 193 78
73.99567413 6.22877836 -43.57220840 242 193 78
73.98886108 6.37671995 -43.82202911 242 193 78
73.99475098 6.26597166 -43.69512177 242 193 78
73.99147797 6.41182709 -43.92220306 242 193 78
73.99551392 6.37611866 -43.91547012 242 193 78
73.99555969 6.33318186 -43.91973114 242 193 78
73.99477386 6.36329460 -44.02357483 242 193 78
73.99335480 6.39236164 -44.12486267 242 193 78
73.98225403 6.05905104 -43.02285004 242 193 78
73.98445129 6.11459160 -43.16482162 242 193 78
73.98406219 6.16601992 -43.30206299 242 193 78
73.98208618 6.16828489 -43.22401047 242 193 78
73.98470306 6.10255384 -42.93692780 242 193 78
73.98365021 6.21544504 -43.35861588 242 193 78
73.98438263 6.15087175 -43.10051727 242 193 78
73.98703003 6.25998068 -43.48288345 242 193 78
73.98567200 6.19556236 -43.25031662 242 193 78
73.98928070 6.30193853 -43.59986877 242 193 78
73.98931885 6.23720074 -43.38668823 242 193 78
73.98957062 6.34083033 -43.71467590 242 193 78
73.99266815 6.27635908 -43.51396942 242 193 78
73.98987579 6.37776756 -43.82165909 242 193 78
73.99279022 6.31269407 -43.63848877 242 193 78
73.99105835 6.41245794 -43.92230606 242 193 78
73.99420166 6.34683132 -43.75576782 242 193 78
73.99456024 6.44605350 -44.01734543 242 193 78
73.99560547 6.43168068 -43.99166870 242 193 78
73.99569702 6.43865108 -44.07265091 242 193 78
73.99090576 6.27391386 -43.09989166 242 193 78
73.98817444 6.32141161 -43.24472427 242 193 78
73.98545074 6.35597372 -42.99893570 242 193 78
73.99194336 6.40977097 -43.49415588 242 193 78
73.98962402 6.42610168 -43.38678360 242 193 78
73.99089813 6.40258312 -43.04259109 242 193 78
73.99053955 6.43934107 -43.19679642 242 193 78
73.98468781 6.23129272 -43.03132248 242 193 78
73.98580170 6.16907549 -43.02297211 242 193 78
73.99329376 6.38145304 -43.30638123 242 193 78
73.98664093 6.21749496 -43.16734314 242 193 78
73.99279785 6.42394257 -43.43082809 242 193 78
73.99286652 6.26323318 -43.29528809 242 193 78
74.00757599 6.46749830 -43.52491760 242 193 78
73.99288177 6.30575943 -43.42671585 242 193 78
73.99322510 6.23404026 -43.43781281 242 193 78
73.99826050 6.44625139 -43.64604950 242 193 78
73.99645233 6.38300276 -43.66084290 242 193 78
73.99407196 6.41813803 -43.77400208 242 193 78
74.03273010 6.46029997 -43.82293701 242 193 78
73.99583435 6.41378880 -43.99651337 242 193 78
74.00865173 6.47639847 -44.16757202 242 193 78
73.98010254 5.92139626 -42.94359970 242 193 78
73.98176575 5.98131752 -43.08885574 242 193 78
73.98403931 6.03653145 -43.22192383 242 193 78
73.98110199 6.00235319 -43.20806885 242 193 78
73.99124146 6.16802216 -43.48900604 242 193 78
73.98950195 6.05435848 -43.32955551 242 193 78
73.99196625 6.21668386 -43.60089111 242 193 78
73.98916626 6.10242987 -43.45770645 242 193 78
73.99220276 6.26112795 -43.70453644 242 193 78
73.98894501 6.14770985 -43.57684326 242 193 78
73.99157715 6.30356455 -43.80768204 242 193 78
73.99213409 6.19070673 -43.68530273 242 193 78
73.99337006 6.34448433 -43.90078354 242 193 78
73.99150848 6.23204374 -43.79289627 242 193 78
73.99495697 6.38288021 -43.99033737 242 193 78
73.99143982 6.26951551 -43.89503860 242 193 78
73.99604797 6.42012358 -44.07735825 242 193 78
73.99373627 6.30741692 -43.98941422 242 193 78
74.00150299 6.45626736 -44.15533447 242 193 78
73.99603271 6.34224892 -44.07808304 242 193 78
73.99510193 6.29466009 -44.09282684 242 193 78
73.99448395 6.32678938 -44.18330002 242 193 78
73.99392700 6.35697174 -44.27149200 242 193 78
73.97995758 5.93861198 -43.14320755 242 193 78
73.98213196 5.99577570 -43.27298355 242 193 78
73.98376465 5.98616934 -43.21625900 242 193 78
73.98763275 6.10646152 -43.56556702 242 193 78
73.98966980 6.03856754 -43.33880234 242 193 78
73.98973083 6.15516663 -43.66921997 242 193 78
73.98870087 6.08827639 -43.46786499 242 193 78
73.99415588 6.20206499 -43.76613998 242 193 78
73.98806763 6.13462305 -43.58576202 242 193 78
73.99302673 6.24522781 -43.86347961 242 193 78
73.99050903 6.17781973 -43.69503021 242 193 78
73.99436188 6.28798485 -43.95420837 242 193 78
73.99051666 6.21943474 -43.80075455 242 193 78
73.99345398 6.32751799 -44.04368973 242 193 78
73.99259949 6.25866318 -43.89847946 242 193 78
73.99602509 6.36587858 -44.12592316 242 193 78
73.99348450 6.29612494 -43.99329758 242 193 78
73.99524689 6.40260220 -44.20639801 242 193 78
73.99523926 6.33251524 -44.08291245 242 193 78
73.99577332 6.43718863 -44.28522873 242 193 78
73.99087524 6.36487103 -44.17713928 242 193 78
73.98992157 6.33834743 -44.17130280 242 193 78
73.98620605 5.94401073 -42.93932724 242 193 78
73.98079681 6.02181387 -42.95355225 242 193 78
73.97989655 6.07804775 -43.10088348 242 193 78
73.98412323 6.08673334 -42.98308563 242 193 78
73.99085236 6.17155361 -43.45317459 242 193 78
73.98536682 6.18244123 -43.35519409 242 193 78
73.98618317 6.13914442 -43.02731323 242 193 78
73.98773956 6.22953606 -43.47133636 242 193 78
73.98565674 6.18678808 -43.17457199 242 193 78
73.98731995 6.27419233 -43.58597565 242 193 78
73.98871613 6.23237896 -43.30786896 242 193 78
73.99096680 6.31796122 -43.68917847 242 193 78
73.99237061 6.27516890 -43.43127441 242 193 78
73.98596954 6.35697699 -43.80017853 242 193 78
73.98980713 6.31474590 -43.55814362 242 193 78
73.99143982 6.39662552 -43.89070892 242 193 78
73.99197388 6.35290718 -43.67053223 242 193 78
73.99229431 6.43372583 -43.98329544 242 193 78
73.99332428 6.43175364 -43.92869949 242 193 78
73.99286652 6.34754801 -43.02919388 242 193 78
73.98381805 6.41982412 -43.01091003 242 193 78
73.98783112 6.23054934 -43.01640701 242 193 78
73.99028015 6.28201962 -43.14657974 242 193 78
73.98901367 6.22188473 -43.13306427 242 193 78
73.99101257 6.03104830 -42.98719788 242 193 78
73.99497986 6.27150488 -43.25486755 242 193 78
73.98960876 6.08356619 -43.13808823 242 193 78
73.99868011 6.42162848 -43.49175644 242 193 78
73.99600220 6.25223494 -43.38144684 242 193 78
74.00778198 6.46435976 -43.58547211 242 193 78
73.99685669 6.29621792 -43.49804688 242 193 78
73.99296570 6.22258329 -43.51924133 242 193 78
73.99913788 6.44084597 -43.70212173 242 193 78
73.99746704 6.37671614 -43.71678162 242 193 78
73.99720764 6.41323185 -43.81892014 242 193 78
73.99879456 6.37676907 -43.93629456 242 193 78
74.00043488 6.44327688 -44.11880875 242 193 78
73.99280548 5.98633718 -43.25389862 242 193 78
73.98959351 6.04250431 -43.37548828 242 193 78
73.99287415 6.09614706 -43.48461914 242 193 78
73.99338531 6.06147432 -43.46012878 242 193 78
73.99483490 6.02287531 -43.45088959 242 193 78
73.99367523 6.19412565 -43.68922806 242 193 78
73.99268341 6.15801144 -43.67757034 242 193 78
73.99534607 6.02434635 -43.56754303 242 193 78
73.99401855 6.20333195 -43.77516937 242 193 78
73.99452209 6.07020140 -43.68107986 242 193 78
73.99533081 6.24604225 -43.86927795 242 193 78
73.99677277 6.11377239 -43.78256607 242 193 78
73.99347687 6.28620148 -43.96272659 242 193 78
73.99463654 6.24381876 -43.96807098 242 193 78
74.00286102 6.40370989 -44.12003326 242 193 78
73.99803162 6.28200388 -44.05295181 242 193 78
74.00360870 6.44115496 -44.19774246 242 193 78
73.99530029 6.31830835 -44.14126587 242 193 78
74.00208282 6.26818609 -44.14951324 242 193 78
73.99859619 6.43229961 -44.28375244 242 193 78
74.00102234 6.38719130 -44.29657364 242 193 78
73.99335480 6.06215477 -43.68531418 242 193 78
73.99449158 6.11199999 -43.78070450 242 193 78
73.98885345 6.09880018 -43.74988556 242 193 78
73.99581909 6.01084995 -43.58613968 242 193 78
73.99418640 6.14521933 -43.83837891 242 193 78
73.98693848 6.05690241 -43.70789719 242 193 78
73.99078369 6.18903971 -43.93341827 242 193 78
73.99230957 6.10074472 -43.80319977 242 193 78
73.99411011 6.23094273 -44.01726913 242 193 78
73.99373627 6.14260483 -43.90085220 242 193 78
73.98916626 6.27026653 -44.10679245 242 193 78
73.99767303 6.18335867 -43.99073029 242 193 78
73.99711609 6.30914259 -44.17713928 242 193 78
73.99777222 6.22092104 -44.07956314 242 193 78
73.99536133 6.34537840 -44.25578308 242 193 78
73.99383545 6.32086086 -44.25209427 242 193 78
73.98348236 5.94392586 -43.20793152 242 193 78
73.99159241 6.04863358 -43.52792358 242 193 78
73.98745728 6.00352955 -43.23773956 242 193 78
73.99418640 6.10110998 -43.62653732 242 193 78
73.98854065 6.05683994 -43.35840225 242 193 78
73.99070740 6.15090609 -43.72973633 242 193 78
73.99235535 6.10703373 -43.46906662 242 193 78
73.99505615 6.19760609 -43.81662369 242 193 78
73.99009705 6.15454769 -43.58432007 242 193 78
73.99441528 6.24307251 -43.90643692 242 193 78
73.99269104 6.19963837 -43.68733978 242 193 78
73.99523163 6.28597832 -43.99014282 242 193 78
73.99598694 6.24232531 -43.78269958 242 193 78
73.99568176 6.32765341 -44.07132721 242 193 78
73.99284363 6.28371859 -43.88360977 242 193 78
73.99582672 6.36730480 -44.15116501 242 193 78
73.99666595 6.32338476 -43.97004318 242 193 78
73.99437714 6.40585995 -44.22780228 242 193 78
73.99739838 6.35969639 -44.05698776 242 193 78
73.99731445 6.34770012 -44.02237320 242 193 78
73.99353790 6.43740177 -44.25775528 242 193 78
73.99652863 6.42876053 -44.22263718 242 193 78
74.00164032 6.44727802 -44.27158737 242 193 78
73.98622894 6.12911320 -43.07854462 242 193 78
73.98124695 6.20356941 -43.05223465 242 193 78
73.98579407 6.25585985 -43.17603683 242 193 78
73.98762512 6.26927948 -43.03889847 242 193 78
73.99605560 6.33657408 -43.53131485 242 193 78
73.99203491 6.35238695 -43.40814590 242 193 78
73.99021912 6.32410431 -43.04496384 242 193 78
73.99343109 6.39722204 -43.51859283 242 193 78
73.99252319 6.36953783 -43.17881393 242 193 78
73.99390411 6.43896770 -43.62273788 242 193 78
73.99446106 6.23411942 -43.01431274 242 193 78
73.99109650 6.28646851 -43.14759064 242 193 78
73.99111176 6.22176981 -43.13621902 242 193 78
73.99397278 6.02198267 -43.00397491 242 193 78
73.99592590 6.27239370 -43.25108337 242 193 78
73.99447632 6.07610607 -43.14070511 242 193 78
73.99701691 6.31971407 -43.36487198 242 193 78
73.99883270 6.12711382 -43.26342010 242 193 78
73.99623108 6.36429548 -43.47868347 242 193 78
73.99781799 6.29723358 -43.48675537 242 193 78
73.99742889 6.22065258 -43.50395966 242 193 78
73.99903870 6.26465130 -43.61220932 242 193 78
74.00146484 6.30545855 -43.71162033 242 193 78
73.99906158 6.34486151 -43.81628799 242 193 78
74.00139618 6.41818810 -43.99727631 242 193 78
73.99501038 5.95976734 -43.28980637 242 193 78
73.99563599 5.97983456 -43.38093948 242 193 78
73.99671936 6.03324890 -43.48676682 242 193 78
73.99536896 6.08467197 -43.59229279 242 193 78
73.99989319 6.04072857 -43.58734131 242 193 78
74.00163269 6.22205400 -43.78128433 242 193 78
74.00003815 6.17973471 -43.77856064 242 193 78
73.99976349 6.13478518 -43.78585434 242 193 78
73.99796295 6.30955553 -43.95557785 242 193 78
74.00086212 6.17894697 -43.87646866 242 193 78
74.00553894 6.35207081 -44.02793884 242 193 78
73.99887085 6.22045755 -43.96639252 242 193 78
74.00259399 6.39122725 -44.10798645 242 193 78
74.00542450 6.26077271 -44.04160309 242 193 78
74.00319672 6.43047380 -44.18199921 242 193 78
74.00079346 6.29823446 -44.12991333 242 193 78
74.00385284 6.24417973 -44.14715576 242 193 78
74.00050354 6.41918087 -44.26493073 242 193 78
74.00363922 6.37088728 -44.27998352 242 193 78
73.99948120 6.09492540 -43.87329865 242 193 78
73.99630737 6.07148647 -43.86178970 242 193 78
73.99385834 6.20455551 -44.06430435 242 193 78
73.99315643 6.18411922 -44.04616928 242 193 78
73.99976349 6.08552694 -43.94295120 242 193 78
73.99975586 6.22614574 -44.11568069 242 193 78
74.00029755 6.12780333 -44.02978897 242 193 78
73.99935150 6.26606131 -44.19264603 242 193 78
74.00043488 6.16813660 -44.11288071 242 193 78
73.99631500 6.30409670 -44.26686478 242 193 78
73.99637604 6.27566957 -44.26879501 242 193 78
73.99527740 6.02384901 -43.59101486 242 193 78
73.99388885 6.12781000 -43.89490128 242 193 78
73.99561310 6.12612486 -43.83317184 242 193 78
73.99201965 6.06186533 -43.65004730 242 193 78
73.99455261 6.17199230 -43.92150497 242 193 78
74.00137329 6.10869884 -43.73757172 242 193 78
73.99830627 6.21669483 -43.99872971 242 193 78
73.99982452 6.15278769 -43.83488464 242 193 78
73.99855042 6.25795984 -44.07730865 242 193 78
73.99520874 6.19421673 -43.93149948 242 193 78
73.99390411 6.34351683 -44.26865387 242 193 78
73.99848938 6.28860664 -44.12302017 242 193 78
73.99967194 6.27267408 -44.09675598 242 193 78
74.00252533 6.37538910 -44.29280090 242 193 78
74.00128937 6.36221457 -44.27096176 242 193 78
73.99111176 5.96346998 -43.16797256 242 193 78
73.99009705 6.02512312 -43.28569412 242 193 78
73.99588013 6.08167076 -43.38294983 242 193 78
73.99125671 6.09282875 -43.25837326 242 193 78
73.99347687 6.10228920 -43.13316345 242 193 78
73.99729156 6.18856573 -43.58414841 242 193 78
73.99610901 6.15458250 -43.25056839 242 193 78
73.99571991 6.23769426 -43.68042374 242 193 78
73.99847412 6.24799013 -43.56833267 242 193 78
73.99754333 6.20643520 -43.26267242 242 193 78
73.99194336 6.29328680 -43.67672348 242 193 78
73.99832153 6.25380421 -43.38122940 242 193 78
73.99679565 6.33835602 -43.76163483 242 193 78
74.00041962 6.29874229 -43.48891068 242 193 78
73.99819946 6.38139725 -43.84796143 242 193 78
73.99957275 6.34166384 -43.59714508 242 193 78
73.99928284 6.42172718 -43.93172836 242 193 78
74.00250244 6.42475080 -43.85698318 242 193 78
73.99791718 6.39219046 -43.00395203 242 193 78
73.99505615 6.28365040 -42.99822235 242 193 78
73.99768829 6.21069908 -42.99726486 242 193 78
73.99771881 6.12617540 -43.00504303 242 193 78
73.99665070 6.38088417 -43.24102020 242 193 78
73.99913788 6.30913925 -43.24584961 242 193 78
74.00293732 6.27398109 -43.37157440 242 193 78
74.00736237 6.36091042 -43.58429337 242 193 78
74.01612854 6.44161654 -43.77026367 242 193 78
73.99954987 5.93014288 -43.14944077 242 193 78
73.99890137 5.98882961 -43.26843643 242 193 78
73.99864960 5.94007683 -43.26617050 242 193 78
74.00012207 6.14291525 -43.48760223 242 193 78
74.00066376 6.09720945 -43.47884369 242 193 78
74.00080872 6.04751730 -43.48265839 242 193 78
74.00228119 6.24297523 -43.67350388 242 193 78
73.99989319 6.19491100 -43.67345428 242 193 78
74.00007629 6.03901005 -43.60030365 242 193 78
74.00201416 6.24046230 -43.76227188 242 193 78
74.00319672 6.08646202 -43.69445038 242 193 78
74.00116730 6.28470516 -43.85042191 242 193 78
74.00340271 6.23261642 -43.86014557 242 193 78
74.00836945 6.41791821 -43.99671555 242 193 78
74.00552368 6.27488518 -43.94187164 242 193 78
74.00002289 6.31353426 -44.03176498 242 193 78
74.00594330 6.25476503 -44.04711914 242 193 78
74.00127411 6.29212761 -44.13281250 242 193 78
74.00327301 6.42354155 -44.25481796 242 193 78
74.00099182 6.09261227 -43.81233597 242 193 78
74.00041199 6.11640692 -43.87919235 242 193 78
73.99892426 6.08681631 -43.87652588 242 193 78
74.00417328 6.23214245 -44.04301453 242 193 78
74.00294495 6.20557928 -44.03471375 242 193 78
74.00367737 6.09503031 -43.95921707 242 193 78
73.99951935 6.24602604 -44.11304855 242 193 78
74.00234985 6.13666201 -44.04236603 242 193 78
73.99973297 6.28658819 -44.18540573 242 193 78
74.00194550 6.25390100 -44.18728256 242 193 78
74.00024414 6.21449232 -44.20186615 242 193 78
74.00096130 6.25149441 -44.27446365 242 193 78
74.00305939 6.11795139 -43.92030716 242 193 78
73.99950409 6.11101389 -43.87933731 242 193 78
73.99982452 6.10089302 -43.84535217 242 193 78
74.00279236 6.21031284 -44.06954193 242 193 78
74.00288391 6.20103598 -44.03192139 242 193 78
74.00206757 6.12782335 -43.90229416 242 193 78
73.99890900 6.24290705 -44.11114120 242 193 78
74.00521088 6.17085075 -43.98352814 242 193 78
74.00062561 6.28354931 -44.18091965 242 193 78
74.00377655 6.21110058 -44.06661224 242 193 78
73.99781036 6.32282829 -44.25259018 242 193 78
74.00080109 6.30712652 -44.23418808 242 193 78
74.00598907 6.34440041 -44.29664612 242 193 78
73.99671936 5.93008375 -43.19184875 242 193 78
73.99380493 5.93443394 -42.96986008 242 193 78
73.99791718 6.04633713 -43.40691757 242 193 78
73.99624634 5.99364424 -43.09553146 242 193 78
73.99575806 6.09939241 -43.50973892 242 193 78
74.00189972 6.04891348 -43.21019363 242 193 78
73.99658966 6.15047407 -43.60614777 242 193 78
73.99864960 6.10136032 -43.33108139 242 193 78
73.99956512 6.19974613 -43.69210815 242 193 78
74.00225067 6.14998436 -43.43499374 242 193 78
73.99760437 6.24613237 -43.78320313 242 193 78
74.00298309 6.19795322 -43.53947830 242 193 78
73.99951172 6.29066896 -43.86373520 242 193 78
73.99904633 6.24248171 -43.64456558 242 193 78
74.00018311 6.33384943 -43.94348526 242 193 78
74.00236511 6.28583288 -43.73765182 242 193 78
73.99748230 6.37419415 -44.02581024 242 193 78
74.00251007 6.32654428 -43.82757950 242 193 78
74.00297546 6.36595154 -43.91416168 242 193 78
74.00542450 6.40476370 -43.99608231 242 193 78
74.00424957 6.44016933 -44.07689667 242 193 78
73.99451447 6.25052166 -43.15992737 242 193 78
74.00078583 6.30493784 -43.25973892 242 193 78
74.00311279 6.35725307 -43.36178970 242 193 78
74.00188446 6.40540600 -43.46392441 242 193 78
73.99822235 6.42080879 -43.32838440 242 193 78
74.00416565 6.43322563 -43.19044495 242 193 78
73.99876404 6.27484035 -42.95766449 242 193 78
74.00035858 6.32446289 -43.08778381 242 193 78
74.00350189 6.37084341 -43.20585251 242 193 78
74.01084900 6.45915031 -43.42257690 242 193 78
73.99723816 6.02423668 -43.02840424 242 193 78
74.00404358 6.03028679 -43.11978531 242 193 78
74.00347900 5.97367716 -43.12076569 242 193 78
74.00240326 6.19421721 -43.34761047 242 193 78
74.00157928 6.14056396 -43.34377670 242 193 78
74.00190735 6.08310127 -43.34999847 242 193 78
74.00576782 6.29472256 -43.53621292 242 193 78
74.00401306 6.13423586 -43.45104980 242 193 78
74.00662994 6.34259939 -43.62702179 242 193 78
74.00382996 6.18254757 -43.55297852 242 193 78
74.00254059 6.11628199 -43.57216263 242 193 78
74.00426483 6.33096457 -43.72298813 242 193 78
73.99999237 6.16250992 -43.67377472 242 193 78
74.00457764 6.20692825 -43.75976181 242 193 78
74.00469208 6.24920130 -43.84883499 242 193 78
74.00719452 6.28952694 -43.92993164 242 193 78
74.00576019 6.32772255 -44.01325989 242 193 78
74.00401306 6.46810150 -44.13940811 242 193 78
74.00688171 6.43649054 -44.23943329 242 193 78
74.00016022 6.01547527 -43.62153625 242 193 78
73.99920654 6.06555414 -43.71126556 242 193 78
74.00177765 6.11439085 -43.79256821 242 193 78
74.00105286 6.07823420 -43.79616165 242 193 78
74.00469971 6.24046707 -43.95196533 242 193 78
73.99819183 6.20508528 -43.95552063 242 193 78
74.00217438 6.08079529 -43.88983536 242 193 78
74.00235748 6.24852276 -44.02594757 242 193 78
74.00083923 6.12393427 -43.97449875 242 193 78
74.00258636 6.28982592 -44.09860229 242 193 78
74.00227356 6.25064898 -44.10945511 242 193 78
74.00450897 6.20495033 -44.12530136 242 193 78
74.00628662 6.24347305 -44.19533539 242 193 78
74.00804901 6.28058195 -44.26533127 242 193 78
74.00198364 6.06943703 -43.83747101 242 193 78
74.00366974 6.11698723 -43.91468811 242 193 78
74.00236511 6.09979534 -43.89590836 242 193 78
74.00248718 6.22156906 -44.08766556 242 193 78
74.00244904 6.14447021 -43.97560501 242 193 78
74.00345612 6.26445723 -44.15376282 242 193 78
74.00167084 6.18642950 -44.05119324 242 193 78
74.00539398 6.30670118 -44.21691895 242 193 78
74.00140381 6.22699118 -44.12589645 242 193 78
74.00550842 6.34687185 -44.27890778 242 193 78
74.00527191 6.26700306 -44.19256210 242 193 78
74.00392914 6.24011469 -44.19357681 242 193 78
74.00769806 6.27803850 -44.25896454 242 193 78
73.99767303 5.96683455 -43.37960815 242 193 78
74.00009918 6.07076311 -43.71722794 242 193 78
73.99997711 6.02026176 -43.47616959 242 193 78
73.99869537 6.12172318 -43.80085754 242 193 78
73.99775696 6.07227135 -43.57460403 242 193 78
74.00614929 6.17087078 -43.86876297 242 193 78
74.00226593 6.12098980 -43.66068268 242 193 78
74.00426483 6.21778011 -43.94495392 242 193 78
74.00181580 6.16894960 -43.75072479 242 193 78
73.99949646 6.26258135 -44.02167511 242 193 78
74.00200653 6.21356583 -43.83286667 242 193 78
74.00381470 6.30618238 -44.08635712 242 193 78
74.00164795 6.25675106 -43.91582108 242 193 78
74.00623322 6.24728012 -43.86906052 242 193 78
73.99810028 6.34524870 -44.11061096 242 193 78
74.00427246 6.28759003 -43.95449448 242 193 78
74.00073242 6.38529873 -44.17652893 242 193 78
74.00531006 6.32664633 -44.03234863 242 193 78
74.00681305 6.41563797 -44.20556641 242 193 78
74.01038361 6.45221758 -44.26847458 242 193 78
73.99741364 5.95320749 -42.97178650 242 193 78
73.99300385 6.02934361 -42.92818451 242 193 78
73.99434662 6.09141302 -43.04671478 242 193 78
73.99948120 6.14882660 -43.15221024 242 193 78
73.99848175 6.15711260 -43.02114487 242 193 78
74.00216675 6.24359226 -43.48752975 242 193 78
74.00064850 6.21392965 -43.01182938 242 193 78
74.00197601 6.30518627 -43.45802307 242 193 78
74.00512695 6.26546478 -43.12621689 242 193 78
74.00116730 6.35232019 -43.55257034 242 193 78
74.00094604 6.35766077 -43.45370102 242 193 78
74.00495148 6.43387842 -43.82242584 242 193 78
74.00204468 6.44128656 -43.72663879 242 193 78
74.01274109 6.44798088 -43.62632370 242 193 78
73.99789429 6.21348190 -43.03165054 242 193 78
74.00273132 6.26876116 -43.13347626 242 193 78
73.99643707 6.08767080 -43.02753067 242 193 78
74.00057220 6.01331615 -43.03225708 242 193 78
74.00174713 6.06877089 -43.15187836 242 193 78
74.00469208 6.30988073 -43.33814240 242 193 78
74.00263977 6.35591316 -43.43887329 242 193 78
74.00258636 6.40212870 -43.53377151 242 193 78
74.00737762 6.38095665 -43.63763809 242 193 78
74.00485992 6.42159748 -43.72843170 242 193 78
74.00826263 6.42914391 -43.91984940 242 193 78
74.00032043 6.01873636 -43.39490128 242 193 78
74.00575256 6.07383251 -43.47827911 242 193 78
74.00354004 6.12789392 -43.56982040 242 193 78
74.00118256 6.17851973 -43.65759277 242 193 78
74.00090027 6.14046383 -43.65249634 242 193 78
74.00179291 6.09860849 -43.65745926 242 193 78
74.00677490 6.27492332 -43.80872726 242 193 78
74.00524902 6.23449039 -43.81222534 242 193 78
74.00366974 6.09596062 -43.75543594 242 193 78
74.00358582 6.14031458 -43.84087372 242 193 78
74.00791168 6.32104063 -43.95998383 242 193 78
74.00179291 6.18322897 -43.92636871 242 193 78
74.00447845 6.36206770 -44.03610992 242 193 78
74.00514984 6.22442484 -43.99967194 242 193 78
74.00042725 6.40030289 -44.11055756 242 193 78
74.00476074 6.35470581 -44.12464142 242 193 78
74.00400543 6.30167150 -44.14943695 242 193 78
74.00701141 6.33882284 -44.21529007 242 193 78
74.00724792 6.37447453 -44.28289032 242 193 78
73.99606323 6.06325579 -43.75661087 242 193 78
74.00306702 6.11167765 -43.82663727 242 193 78
74.00379181 6.09087229 -43.81213379 242 193 78
74.00211334 6.22379065 -43.99449158 242 193 78
74.00157166 6.20372725 -43.97803497 242 193 78
74.00467682 6.10863209 -43.88780212 242 193 78
73.99953461 6.24699211 -44.05045700 242 193 78
74.00205231 6.15089989 -43.97045135 242 193 78
74.00291443 6.28841829 -44.11558151 242 193 78
74.00575256 6.19286966 -44.04170990 242 193 78
74.00344849 6.32907867 -44.18125153 242 193 78
74.00439453 6.30226183 -44.17966080 242 193 78
74.00827789 6.34163141 -44.24266434 242 193 78
73.99996185 5.93129635 -43.36505890 242 193 78
74.00070953 6.09516811 -43.76077271 242 193 78
73.99693298 6.09394503 -43.70040894 242 193 78
73.99816132 6.02928877 -43.50598526 242 193 78
74.00112915 6.14362621 -43.77470779 242 193 78
74.00153351 6.07989645 -43.59753036 242 193 78
74.00637054 6.19128561 -43.84603119 242 193 78
74.00250244 6.12700319 -43.68624878 242 193 78
74.00173187 6.23640347 -43.92641068 242 193 78
74.00482178 6.22913456 -43.88433075 242 193 78
74.00443268 6.32842207 -44.10661697 242 193 78
74.00786591 6.27248859 -43.95647812 242 193 78
74.00242615 6.25740576 -43.93591309 242 193 78
74.00234985 6.36303043 -44.13381577 242 193 78
74.00341034 6.35318661 -44.10690689 242 193 78
74.00432587 6.33611202 -44.08553696 242 193 78
74.00778198 6.42823696 -44.23666763 242 193 78
73.99784088 5.96845818 -43.15330124 242 193 78
73.99903107 6.02869463 -43.25339890 242 193 78
74.00270844 6.08849001 -43.34558105 242 193 78
74.00197601 6.09703493 -43.21537399 242 193 78
74.00293732 6.10323334 -43.09442520 242 193 78
74.00194550 6.19743347 -43.52559280 242 193 78
74.00305939 6.15960789 -43.20552063 242 193 78
74.00154114 6.15895319 -43.10047150 242 193 78
74.00032043 6.25595760 -43.50677490 242 193 78
74.00014496 6.21098661 -43.21398163 242 193 78
74.00426483 6.30541277 -43.58926010 242 193 78
74.00714111 6.26012135 -43.31019974 242 193 78
74.00321198 6.35187006 -43.67438507 242 193 78
74.00532532 6.39644146 -43.75315857 242 193 78
74.00748444 6.40005398 -43.67542648 242 193 78
74.00592041 6.44156599 -43.76004028 242 193 78
73.99703979 6.23557758 -42.94282532 242 193 78
73.99481201 6.16522264 -42.95107651 242 193 78
74.00083923 6.40861273 -43.15251923 242 193 78
74.00036621 6.22065258 -43.06093979 242 193 78
74.00956726 6.46112204 -43.23808670 242 193 78
74.00346375 6.27326870 -43.16432190 242 193 78
74.00226593 6.19486427 -43.18832397 242 193 78
74.00156403 6.43935537 -43.35451889 242 193 78
74.00195313 6.37036133 -43.37167358 242 193 78
74.01415253 6.46312237 -43.54240036 242 193 78
