64.02758026 4.58403778 -41.33433151 58 125 68
63.74920273 4.56026983 -41.33115387 58 125 68
64.14379120 4.90833902 -41.18480301 58 125 68
64.10008240 4.94903088 -41.15393448 58 125 68
64.05157471 5.02120543 -41.05610657 58 125 68
63.93396378 4.51509666 -41.69618607 58 125 68
63.97393036 4.98072720 -41.09262848 58 125 68
63.93379211 4.99078321 -41.12105179 58 125 68
63.89249039 4.99512911 -41.16389847 58 125 68
63.85011292 5.00345325 -41.20226669 58 125 68
63.80658340 5.01259232 -41.24051666 58 125 68
64.27755737 5.00244856 -41.31055832 58 125 68
64.23043060 5.02725077 -41.31334305 58 125 68
64.15528107 5.01939917 -41.25598526 58 125 68
64.10882568 5.03240728 -41.49263382 58 125 68
64.03600311 5.22109604 -41.06227875 58 125 68
64.02526855 5.28873301 -41.05724335 58 125 68
63.96946335 5.19486094 -41.07139969 58 125 68
63.95926666 5.26974249 -41.05235672 58 125 68
63.98368073 5.38446426 -41.01411438 58 125 68
63.92251587 5.28557968 -41.06973267 58 125 68
63.95230865 5.40204048 -41.01702881 58 125 68
63.88568115 5.30494070 -41.07864380 58 125 68
63.91955566 5.42591810 -41.00130463 58 125 68
63.84819031 5.32407141 -41.09219360 58 125 68
63.88771820 5.43953896 -41.02314377 58 125 68
63.81046295 5.34036016 -41.11354446 58 125 68
63.85614014 5.45760059 -41.03122711 58 125 68
63.77110672 5.35514641 -41.14019012 58 125 68
63.77947617 5.42833042 -41.09070969 58 125 68
63.78685379 5.47862482 -41.11066055 58 125 68
67.21393585 5.07310057 -42.88594437 58 125 68
67.16204071 4.82044601 -42.92417145 58 125 68
66.63562775 4.86958981 -43.17075729 58 125 68
65.98540497 4.87835550 -43.17278290 58 125 68
66.15355682 5.26120472 -45.19282150 58 125 68
65.39916229 5.33185863 -43.75755692 58 125 68
65.23841095 5.23756361 -43.75781631 58 125 68
65.10147858 4.97492790 -46.89641190 58 125 68
69.33139801 4.82581615 -43.19596481 58 125 68
66.77119446 4.89448309 -43.16793442 58 125 68
66.56623840 4.91373396 -43.19006729 58 125 68
66.61846161 4.98940468 -43.61426163 58 125 68
65.88007355 4.89971924 -43.18352509 58 125 68
65.50996399 4.93089247 -43.67665100 58 125 68
65.39864349 5.20028353 -43.67853546 58 125 68
65.24945831 5.23333693 -43.76096344 58 125 68
65.19275665 4.90986729 -46.87722015 58 125 68
65.18806458 4.94558811 -49.29234314 58 125 68
63.94734573 5.44381142 -41.00619125 58 125 68
63.95288849 5.46991968 -41.02768326 58 125 68
64.16543579 4.91257334 -41.23448944 58 125 68
64.10842896 4.98840189 -41.13172150 58 125 68
64.13944244 5.00555658 -41.16166306 58 125 68
64.26606750 4.97734833 -41.28544235 58 125 68
64.09729767 5.01681852 -41.18061066 58 125 68
64.21277618 5.01949549 -41.23020935 58 125 68
64.04828644 5.08310032 -41.08408356 58 125 68
64.17353821 5.02295876 -41.26234055 58 125 68
64.00794220 5.09838629 -41.09294891 58 125 68
64.13401031 5.01803780 -41.31438065 58 125 68
63.96748352 5.10901880 -41.11501694 58 125 68
64.09028625 5.02745342 -41.33508682 58 125 68
63.92691803 5.12212706 -41.13220215 58 125 68
64.03287506 5.16495419 -41.05516052 58 125 68
63.88642120 5.13950443 -41.14028549 58 125 68
63.99589539 5.17354298 -41.07365799 58 125 68
63.84458542 5.14682817 -41.17298508 58 125 68
63.88068008 5.17639494 -41.13130188 58 125 68
63.91853714 5.19353819 -41.10601044 58 125 68
63.75483322 5.15481329 -41.26401138 58 125 68
63.79687881 5.19157934 -41.19432068 58 125 68
63.79870987 5.21990395 -41.17631912 58 125 68
64.28499603 4.56012440 -41.19270325 58 125 68
64.18851471 4.57007360 -41.25516129 58 125 68
64.09166718 4.57837915 -41.32354736 58 125 68
64.11535645 4.57635164 -41.40119171 58 125 68
63.96859360 4.56454325 -41.34874344 58 125 68
64.03409576 4.70888567 -41.32640839 58 125 68
63.90522003 4.54255342 -41.63037491 58 125 68
63.98850250 4.57337141 -41.13188171 58 125 68
63.90180206 4.50662804 -41.05549240 58 125 68
63.97535706 4.57374382 -41.18511963 58 125 68
64.29236603 4.52666044 -41.17768478 58 125 68
64.10065460 4.53734255 -41.31902313 58 125 68
64.04936981 4.56617737 -41.31793976 58 125 68
63.99927139 4.58652830 -41.32995605 58 125 68
63.90232849 4.52829790 -41.36074829 58 125 68
63.85055161 4.57930946 -41.32918167 58 125 68
64.21034241 4.97526789 -41.19865036 58 125 68
64.16725922 5.00132704 -41.18991852 58 125 68
64.12819672 4.91981983 -41.13553238 58 125 68
64.12523651 5.02405643 -41.18625259 58 125 68
64.08506012 4.92076349 -41.17670441 58 125 68
64.08832550 5.01577091 -41.24823380 58 125 68
64.03468323 5.01270294 -41.04548645 58 125 68
64.03836060 5.11381578 -41.08153915 58 125 68
63.99377441 5.00894165 -41.09432983 58 125 68
64.00191498 5.13092613 -41.08779526 58 125 68
63.95172882 5.01367664 -41.13007355 58 125 68
63.96418381 5.14382839 -41.10357285 58 125 68
63.90821838 5.02103424 -41.16016006 58 125 68
63.92656708 5.15868855 -41.11686707 58 125 68
63.86471176 5.03244781 -41.18699646 58 125 68
63.88953018 5.17467403 -41.12664032 58 125 68
63.81919098 5.03712559 -41.22697067 58 125 68
63.85110855 5.18854856 -41.14516449 58 125 68
63.85210800 5.26621771 -41.10454559 58 125 68
63.81606674 5.27679014 -41.13064957 58 125 68
63.77859879 5.28580666 -41.16311646 58 125 68
63.97021103 5.43417025 -40.99871445 58 125 68
63.93683243 5.45063734 -41.00004578 58 125 68
63.90447998 5.46838236 -41.00081635 58 125 68
63.87017059 5.47744894 -41.03941727 58 125 68
63.81189728 5.44921494 -41.05743027 58 125 68
63.73359299 5.47290134 -41.12765503 58 125 68
66.07891846 4.93259096 -43.22720337 58 125 68
65.37699127 4.86511278 -43.26293945 58 125 68
65.31379700 4.95644093 -43.75036621 58 125 68
67.32292938 5.28761387 -42.84060669 58 125 68
66.95301819 5.27226830 -45.12090302 58 125 68
65.45116425 5.25914478 -43.73160553 58 125 68
65.28839874 5.30680323 -43.78129578 58 125 68
67.23235321 4.92475080 -43.04487228 58 125 68
66.85359192 4.90319729 -43.17086411 58 125 68
66.56570435 4.90561867 -43.23966217 58 125 68
65.49772644 4.99359226 -43.70437241 58 125 68
65.39174652 5.27561712 -43.74297714 58 125 68
65.18567657 4.93779325 -46.86312103 58 125 68
63.96860504 5.46396303 -40.99330521 58 125 68
64.24092102 4.96894455 -41.26922226 58 125 68
64.27415466 4.98483849 -41.30646515 58 125 68
64.11482239 5.02078247 -41.16829681 58 125 68
64.14804840 5.02139235 -41.23550034 58 125 68
64.26703644 5.02136135 -41.32125854 58 125 68
64.10773468 5.01466417 -41.29092026 58 125 68
64.22438049 5.03393507 -41.32664108 58 125 68
64.06278229 5.04358625 -41.26822662 58 125 68
64.10192108 5.01853848 -41.38068771 58 125 68
63.94729233 5.12259626 -41.11646652 58 125 68
63.97639465 5.16126060 -41.08724594 58 125 68
64.10269165 5.01878786 -41.46890640 58 125 68
63.93720245 5.17194843 -41.10274887 58 125 68
64.04601288 5.16188478 -41.16997147 58 125 68
63.89908600 5.18126059 -41.12088776 58 125 68
64.00427246 5.22960138 -41.04028320 58 125 68
63.85960770 5.19207954 -41.13808823 58 125 68
63.96906281 5.24080896 -41.04760361 58 125 68
63.81887054 5.19936275 -41.16533661 58 125 68
63.85628128 5.23066854 -41.12282181 58 125 68
63.89640427 5.25601530 -41.08063889 58 125 68
63.85903549 5.26380301 -41.09843063 58 125 68
63.82077408 5.27170944 -41.11664963 58 125 68
64.05601501 4.58407497 -41.33493423 58 125 68
64.04021454 4.69629335 -41.35061646 58 125 68
63.91906357 4.52382231 -41.04278183 58 125 68
63.79201508 4.55620909 -41.33442688 58 125 68
63.91384506 4.51719475 -41.03953171 58 125 68
64.29429626 4.55974007 -41.16215134 58 125 68
64.20653534 4.55816317 -41.22735596 58 125 68
64.11418152 4.56910419 -41.27899170 58 125 68
64.06693268 4.57342100 -41.30764008 58 125 68
64.01833344 4.58908272 -41.32046509 58 125 68
64.01017761 4.66909885 -41.33589554 58 125 68
63.91000366 4.52166986 -41.64470291 58 125 68
64.28666687 4.53374720 -41.55561829 58 125 68
64.16992950 4.90871906 -41.22308731 58 125 68
64.12092590 4.96746159 -41.15244293 58 125 68
64.10105133 5.01937485 -41.19137573 58 125 68
64.05960083 4.97152519 -41.08713913 58 125 68
64.03852081 5.05284882 -41.06416702 58 125 68
63.99899673 4.95548058 -41.05822372 58 125 68
64.00158691 5.05025721 -41.10283661 58 125 68
63.95705414 4.94234610 -41.11559677 58 125 68
63.96372604 5.05946207 -41.12160492 58 125 68
63.91386795 4.95281315 -41.13445663 58 125 68
63.92464828 5.06890869 -41.14248276 58 125 68
63.87033463 4.96524382 -41.14957047 58 125 68
63.88588715 5.07822943 -41.16166306 58 125 68
63.87953186 5.15516901 -41.13822937 58 125 68
63.81007385 5.01459932 -41.23418045 58 125 68
63.80362320 5.08489561 -41.23183823 58 125 68
63.76359558 5.16902018 -41.23693466 58 125 68
64.23539734 5.04585171 -41.36080933 58 125 68
64.04467010 5.23431683 -41.09175873 58 125 68
63.99516678 5.39146328 -41.00886917 58 125 68
63.97063065 5.29215479 -41.03405762 58 125 68
63.94964218 5.36228228 -41.01427841 58 125 68
63.94884491 5.46934557 -40.99200058 58 125 68
63.91618347 5.37485123 -41.02472687 58 125 68
63.92011261 5.47722816 -41.01665115 58 125 68
63.88097382 5.38214207 -41.05232239 58 125 68
63.87201309 5.45504713 -41.00220108 58 125 68
63.82428360 5.34362459 -41.08695602 58 125 68
63.81242752 5.40975285 -41.07626343 58 125 68
63.80546951 5.47040081 -41.06571960 58 125 68
63.74488831 5.36287212 -41.14540863 58 125 68
63.74213791 5.43659353 -41.10876846 58 125 68
65.36725616 4.92399311 -43.25718689 58 125 68
66.59783936 4.92621517 -43.58345032 58 125 68
65.87516785 5.24675560 -45.10702133 58 125 68
66.78339386 5.25547791 -48.75874329 58 125 68
65.31667328 5.27587843 -43.76005173 58 125 68
65.22987366 4.90422535 -46.42034912 58 125 68
66.02841187 5.24917269 -48.84268570 58 125 68
66.79195404 4.90284729 -43.16149139 58 125 68
66.60427094 4.89296103 -43.21772003 58 125 68
66.05709076 4.93743467 -43.18690109 58 125 68
65.50709534 4.93119621 -43.68002701 58 125 68
65.49225616 5.22408342 -43.68358612 58 125 68
65.34259796 5.24429035 -43.74023819 58 125 68
65.19248199 5.26882648 -43.79707336 58 125 68
65.08045959 4.89407253 -46.40061188 58 125 68
64.25027466 4.98379803 -41.27033997 58 125 68
64.19123840 5.05983448 -41.15639114 58 125 68
64.23258209 5.03008795 -41.29239273 58 125 68
64.27014160 5.03131485 -41.36328506 58 125 68
64.14739227 5.04774857 -41.32358932 58 125 68
64.10874176 5.03486872 -41.38889694 58 125 68
64.05831146 5.12689495 -41.22302246 58 125 68
64.01555634 5.21917439 -41.04932785 58 125 68
64.04560852 5.22147942 -41.09423447 58 125 68
63.91343307 5.20251083 -41.09986877 58 125 68
63.94372177 5.23602962 -41.07874298 58 125 68
63.97495651 5.26827621 -41.04725266 58 125 68
63.83468628 5.21793556 -41.14444733 58 125 68
63.87040710 5.25381804 -41.10954285 58 125 68
63.97627640 5.29764938 -41.03905869 58 125 68
63.94295120 5.30849123 -41.04232788 58 125 68
63.79228210 5.26536417 -41.16459274 58 125 68
63.83333969 5.29975653 -41.10904312 58 125 68
63.79521561 5.30436134 -41.13655090 58 125 68
63.75231171 5.30190992 -41.18600082 58 125 68
63.76215744 5.33413410 -41.15045166 58 125 68
64.20175171 4.56511974 -41.48110962 58 125 68
64.02281952 4.68224621 -41.32210922 58 125 68
63.97065353 4.54771662 -41.56006622 58 125 68
63.91349030 4.52165461 -41.64035416 58 125 68
64.00796509 4.96907854 -41.03191757 58 125 68
63.99150085 4.98283195 -41.08011627 58 125 68
63.91231918 4.98339605 -41.12826157 58 125 68
64.30160522 4.52306843 -41.17455292 58 125 68
63.95721817 4.53273964 -41.17044067 58 125 68
63.92439270 4.55243111 -41.32606888 58 125 68
63.82533264 4.55976534 -41.36893082 58 125 68
63.70009232 4.52992296 -41.31922531 58 125 68
63.95843887 4.57577848 -41.05817795 58 125 68
64.32280731 4.53746843 -41.18008423 58 125 68
64.10210419 4.55791140 -41.29239273 58 125 68
63.98896790 4.57118797 -41.12919235 58 125 68
63.96251297 4.56679249 -41.36959839 58 125 68
64.21015930 4.56071424 -41.49971771 58 125 68
64.11212921 4.93145180 -41.17494202 58 125 68
64.03050995 4.67454720 -41.32790756 58 125 68
64.01622772 4.99156427 -41.04108047 58 125 68
63.99684143 5.02634954 -41.09572601 58 125 68
63.92020798 4.50901222 -41.64403534 58 125 68
63.94016266 4.98415995 -41.10921860 58 125 68
63.90040970 4.98207331 -41.14395523 58 125 68
63.86014938 4.98681879 -41.16685486 58 125 68
64.26420593 5.04450607 -41.37483978 58 125 68
64.26722717 4.96594381 -41.29197693 58 125 68
64.17224884 5.02532959 -41.23921204 58 125 68
64.10754395 5.03490067 -41.54385376 58 125 68
64.09028625 5.01796579 -41.32051849 58 125 68
64.04376984 5.20801926 -41.06978607 58 125 68
64.01401520 5.27867365 -41.04703522 58 125 68
64.00175476 5.17924452 -41.05804062 58 125 68
63.98183060 5.28988314 -41.05245590 58 125 68
63.96463394 5.17887497 -41.09085846 58 125 68
63.94968414 5.30918360 -41.04133987 58 125 68
63.92678452 5.18936920 -41.10141754 58 125 68
63.91765594 5.31841946 -41.05347443 58 125 68
63.88824081 5.19932699 -41.11600494 58 125 68
63.88493729 5.33176041 -41.05685043 58 125 68
63.84979630 5.20723915 -41.13430786 58 125 68
63.85206223 5.33779192 -41.07908630 58 125 68
63.80805206 5.20957327 -41.17115784 58 125 68
63.81689072 5.34411716 -41.10369110 58 125 68
63.76162720 5.20095158 -41.23304749 58 125 68
63.78104401 5.35116816 -41.12629700 58 125 68
63.74439240 5.35846663 -41.15524292 58 125 68
63.70317841 5.42906094 -41.16776276 58 125 68
67.16207123 5.01704454 -42.90253830 58 125 68
66.81677246 4.91065073 -43.17701721 58 125 68
66.61717987 4.89900970 -43.20594406 58 125 68
66.08194733 5.23102474 -43.64493179 58 125 68
66.10292053 4.91260242 -43.20558929 58 125 68
65.91941071 4.92174768 -43.21976852 58 125 68
65.38286591 5.18844557 -43.68634033 58 125 68
65.46796417 4.88104534 -43.69293594 58 125 68
65.37126160 4.90160751 -43.68053436 58 125 68
65.29718018 4.90529537 -43.73722458 58 125 68
65.09658051 4.97428751 -46.88216019 58 125 68
65.44885254 5.20214176 -43.68135452 58 125 68
65.30400085 5.21016359 -43.75786591 58 125 68
65.14719391 5.22885180 -43.79440689 58 125 68
66.05158997 5.21503639 -46.86887360 58 125 68
69.97924805 4.88015985 -43.44304276 58 125 68
66.60717010 4.93115950 -43.17078781 58 125 68
66.05652618 4.91698122 -43.17662430 58 125 68
64.11770630 5.02139473 -41.51135635 58 125 68
64.01921082 5.26193047 -41.03988266 58 125 68
63.94984436 5.28646135 -41.04148102 58 125 68
63.91399384 5.29221582 -41.05914307 58 125 68
63.94461823 5.32919359 -41.02988434 58 125 68
63.97422028 5.35332251 -41.01967621 58 125 68
63.84194565 5.30513525 -41.09307861 58 125 68
63.94282532 5.36716032 -41.01110840 58 125 68
63.97803116 5.38520050 -41.00345230 58 125 68
63.84054184 5.34345675 -41.08763885 58 125 68
63.94777679 5.39621639 -40.99897385 58 125 68
63.80604553 5.35307932 -41.09584808 58 125 68
63.84408951 5.38210821 -41.05953217 58 125 68
63.88443756 5.40725708 -41.01867294 58 125 68
63.85189819 5.41071272 -41.04041672 58 125 68
63.81752777 5.41223621 -41.06353760 58 125 68
63.78372192 5.41710329 -41.08123016 58 125 68
64.16944122 4.91811275 -41.21203232 58 125 68
64.18013000 4.99398041 -41.14474869 58 125 68
64.06487274 4.97600842 -41.09535599 58 125 68
64.14199829 4.99556398 -41.16008759 58 125 68
64.02434540 5.02387524 -41.03820038 58 125 68
64.10224152 5.01348114 -41.14755630 58 125 68
63.98590088 5.00193310 -41.09628677 58 125 68
64.06466675 5.02041912 -41.15372467 58 125 68
63.94572067 5.00247288 -41.11830521 58 125 68
64.02508545 5.07397270 -41.07605362 58 125 68
63.90416718 4.99915648 -41.14977264 58 125 68
63.92620850 5.03934145 -41.13171005 58 125 68
63.95158768 5.06757021 -41.12672043 58 125 68
63.81929398 4.99603748 -41.20657730 58 125 68
63.84348679 5.02918959 -41.19675446 58 125 68
63.79713440 5.00946665 -41.25903702 58 125 68
64.28202057 4.54004097 -41.18157959 58 125 68
64.04176331 4.52712774 -41.30526352 58 125 68
64.10414124 4.57818794 -41.37800217 58 125 68
63.99127197 4.54350948 -41.30820847 58 125 68
63.94042587 4.54217720 -41.33373642 58 125 68
63.78316498 4.55115700 -41.31477356 58 125 68
63.95472336 4.57135868 -41.06729126 58 125 68
63.70683289 4.51837397 -41.30880356 58 125 68
64.30043030 4.53679848 -41.21872330 58 125 68
64.20724487 4.56759167 -41.22554016 58 125 68
64.11902618 4.55536270 -41.28562164 58 125 68
64.02695465 4.57732296 -41.30483627 58 125 68
63.96488571 4.57186079 -41.13399124 58 125 68
63.80234528 4.56726122 -41.31774521 58 125 68
64.13489532 4.90725374 -41.16512299 58 125 68
64.09464264 4.92832565 -41.15545654 58 125 68
64.02816010 4.71300983 -41.32587433 58 125 68
64.00090790 4.95811605 -41.06852341 58 125 68
63.96292877 4.96099520 -41.08738708 58 125 68
63.94470215 5.00694656 -41.12000275 58 125 68
63.90668106 4.99981499 -41.15463638 58 125 68
63.86753464 4.99951553 -41.18060303 58 125 68
64.28355408 5.01819611 -41.33365631 58 125 68
64.24124908 5.02992582 -41.33653641 58 125 68
64.19089508 5.03533411 -41.15285110 58 125 68
64.15379333 5.02148914 -41.19905090 58 125 68
64.11822510 5.01823902 -41.33362961 58 125 68
64.08309937 5.02259827 -41.46421814 58 125 68
64.06778717 5.07470083 -41.14906693 58 125 68
64.02611542 5.12995911 -41.07230377 58 125 68
63.99331665 5.19179821 -41.06829834 58 125 68
63.97372818 5.31146717 -41.02715302 58 125 68
63.95740509 5.19321775 -41.09084320 58 125 68
63.94364929 5.32028866 -41.03286743 58 125 68
63.92182541 5.20380878 -41.09530640 58 125 68
63.91164780 5.32279015 -41.05414581 58 125 68
63.88428116 5.20610809 -41.11909103 58 125 68
63.88104630 5.33171606 -41.06150436 58 125 68
63.84591675 5.20582294 -41.14763641 58 125 68
63.84894562 5.33885527 -41.07456970 58 125 68
63.80555725 5.20583057 -41.17977905 58 125 68
63.79104233 5.27541828 -41.15497208 58 125 68
63.74340439 5.34377289 -41.16225433 58 125 68
63.94093323 5.45639324 -41.00586700 58 125 68
63.87608337 5.47323036 -41.02597427 58 125 68
63.80686569 5.48051500 -41.08174133 58 125 68
67.29664612 5.29485226 -42.80204773 58 125 68
66.60696411 4.91602707 -43.20848083 58 125 68
65.98802185 4.90966272 -43.20323181 58 125 68
65.45132446 5.21216583 -43.67474365 58 125 68
65.31498718 5.22426462 -43.75036240 58 125 68
65.23818207 5.23633146 -43.75702667 58 125 68
65.24642944 4.90645218 -46.91715622 58 125 68
66.79946899 5.23870230 -46.84603882 58 125 68
66.60682678 4.89388800 -43.47322845 58 125 68
65.51085663 5.23478842 -43.68892288 58 125 68
65.36365509 5.22912216 -43.73006058 58 125 68
65.21667480 5.22662592 -43.77839661 58 125 68
65.68096161 4.71149588 -42.82223511 58 125 68
63.93967819 5.45388889 -40.99914169 58 125 68
63.87694550 5.46873856 -41.01317978 58 125 68
63.80783463 5.46979427 -41.07005692 58 125 68
63.73067093 5.47014380 -41.14623260 58 125 68
64.24451447 4.98475790 -41.27030945 58 125 68
64.27572632 5.02482128 -41.36296844 58 125 68
64.15509033 5.01436043 -41.25670624 58 125 68
64.11367798 5.01021004 -41.28425598 58 125 68
64.06970215 5.02822733 -41.27196503 58 125 68
64.02391815 5.15692711 -41.05512238 58 125 68
64.03765869 5.19043112 -41.05878830 58 125 68
64.14140320 5.01624775 -41.52276230 58 125 68
64.00334167 5.20518637 -41.04825592 58 125 68
64.09776306 5.02175426 -41.52924347 58 125 68
63.91157150 5.15890026 -41.11392212 58 125 68
63.93068314 5.20012617 -41.09440613 58 125 68
63.95158768 5.23891735 -41.07077789 58 125 68
63.82965088 5.14949656 -41.17614746 58 125 68
63.91752243 5.24325085 -41.07822418 58 125 68
63.94385529 5.28314304 -41.04048157 58 125 68
63.81440353 5.19277906 -41.17454529 58 125 68
63.84477615 5.24027586 -41.12357712 58 125 68
63.87675095 5.28148746 -41.07606506 58 125 68
63.84026718 5.27581167 -41.10665894 58 125 68
63.80307388 5.27144480 -41.13446426 58 125 68
64.15881348 4.56059456 -41.45634842 58 125 68
64.05198669 4.59354973 -41.45391083 58 125 68
64.08975220 4.90305281 -41.15425873 58 125 68
64.04553986 4.99180794 -41.03607941 58 125 68
64.00867462 4.98705769 -41.05783463 58 125 68
63.97025299 4.97447491 -41.09064865 58 125 68
63.93082428 4.96855688 -41.11465073 58 125 68
63.89027405 4.96338034 -41.13821030 58 125 68
63.86286163 4.98577309 -41.17239761 58 125 68
64.18404388 4.57065153 -41.24407959 58 125 68
64.09087372 4.55064583 -41.29862976 58 125 68
64.04355621 4.55295515 -41.31122971 58 125 68
63.96207809 4.56616879 -41.15132904 58 125 68
63.94535446 4.56303835 -41.32984543 58 125 68
63.75068283 4.55700254 -41.31989288 58 125 68
63.95856857 4.57293987 -41.11244202 58 125 68
63.99465942 4.56374502 -41.14419174 58 125 68
63.93895721 4.54846525 -41.03885651 58 125 68
64.31119537 4.50495148 -41.25127411 58 125 68
64.20962524 4.55752563 -41.22567749 58 125 68
64.02351379 4.58541441 -41.26070023 58 125 68
63.96668243 4.57602406 -41.09546661 58 125 68
63.92730331 4.56346130 -41.32365799 58 125 68
63.69281006 4.54479504 -41.32387161 58 125 68
64.11309814 4.92563438 -41.09718323 58 125 68
64.08761597 4.97952890 -41.11498260 58 125 68
64.04907227 5.02999687 -41.05432892 58 125 68
64.00334167 4.56883621 -41.44596481 58 125 68
63.99697876 4.97378445 -41.07624817 58 125 68
63.95877838 4.96902943 -41.10092545 58 125 68
63.94138336 5.01864338 -41.12263489 58 125 68
63.90225983 5.00448132 -41.16499710 58 125 68
63.86309433 5.00371933 -41.18529892 58 125 68
64.27980804 5.01874399 -41.33718491 58 125 68
64.23682404 5.02941656 -41.33721924 58 125 68
64.24170685 4.96596003 -41.26342392 58 125 68
64.16487885 5.02440882 -41.49508667 58 125 68
64.14881134 5.01844406 -41.20844650 58 125 68
64.11546326 5.04239368 -41.37312698 58 125 68
64.10855103 5.01189041 -41.23741531 58 125 68
64.07724762 5.01926613 -41.43997955 58 125 68
64.06054688 5.10242510 -41.09891891 58 125 68
64.02920532 5.23099375 -41.04605484 58 125 68
64.02223969 5.13123798 -41.06649017 58 125 68
63.99635315 5.24309731 -41.04104996 58 125 68
63.97111130 5.29868984 -41.03280258 58 125 68
63.95413589 5.18102217 -41.09667587 58 125 68
63.94034576 5.31002855 -41.02800751 58 125 68
63.91698456 5.18196249 -41.11259842 58 125 68
63.90994263 5.31454849 -41.03747559 58 125 68
63.88165665 5.19177628 -41.11427689 58 125 68
63.87656403 5.30889940 -41.07258987 58 125 68
63.84126663 5.18432236 -41.15066910 58 125 68
63.84168243 5.30388260 -41.10586929 58 125 68
63.79872894 5.17325354 -41.19520187 58 125 68
63.78203201 5.23536253 -41.18276978 58 125 68
63.77048874 5.30279112 -41.15760040 58 125 68
63.93601227 5.47779608 -41.00451279 58 125 68
63.90505219 5.44899988 -40.99490738 58 125 68
63.87181473 5.44955492 -41.01781464 58 125 68
63.83906937 5.45499945 -41.03000641 58 125 68
63.76342010 5.45107889 -41.10062790 58 125 68
66.60794067 4.93068123 -43.61381912 58 125 68
65.42230225 4.92167950 -43.69179916 58 125 68
65.29810333 4.91498470 -43.30013275 58 125 68
66.03578949 5.24728632 -46.88654709 58 125 68
66.16525269 5.28133249 -45.16586685 58 125 68
65.40936279 5.30500078 -43.74660873 58 125 68
65.10498047 5.27107143 -45.45999146 58 125 68
65.10041809 4.90221930 -49.34295273 58 125 68
66.90113068 4.93067598 -43.18917084 58 125 68
66.66426849 4.90311337 -43.19388199 58 125 68
66.61122131 4.91358805 -43.54797745 58 125 68
65.38945770 4.94289970 -43.73014069 58 125 68
69.62886047 4.92179108 -43.19074249 58 125 68
63.96847153 5.43879080 -40.98548889 58 125 68
63.93875122 5.43931866 -41.00222015 58 125 68
63.95720291 5.44561148 -41.04376984 58 125 68
63.85436249 5.42002773 -41.02644348 58 125 68
63.87752151 5.44962931 -41.01186371 58 125 68
63.89949799 5.46866703 -41.01392746 58 125 68
63.78172302 5.41572857 -41.08518219 58 125 68
63.80968094 5.44654274 -41.06114197 58 125 68
63.83696747 5.46907043 -41.04753494 58 125 68
63.80348587 5.46872330 -41.06974792 58 125 68
63.76755524 5.46617460 -41.09868240 58 125 68
63.68904495 5.45750952 -41.17111588 58 125 68
64.23647308 4.94668007 -41.28558350 58 125 68
64.22878265 5.01146078 -41.26284790 58 125 68
64.23857880 5.01930428 -41.32640076 58 125 68
64.14813232 5.00842237 -41.29497528 58 125 68
64.10686493 5.01254272 -41.30271149 58 125 68
64.11316681 5.05001831 -41.30949783 58 125 68
64.01630402 5.12018776 -41.07723236 58 125 68
64.07086182 5.07897854 -41.27051163 58 125 68
63.97827530 5.11451769 -41.10259628 58 125 68
64.02930450 5.20153618 -41.06000900 58 125 68
63.94015884 5.11126757 -41.12336349 58 125 68
63.99559784 5.21859121 -41.03961182 58 125 68
63.90019989 5.10566998 -41.14923859 58 125 68
63.91217422 5.15511513 -41.12480164 58 125 68
63.97697067 5.26125145 -41.02175903 58 125 68
63.87479019 5.16049385 -41.13138962 58 125 68
63.94349670 5.25285959 -41.04908752 58 125 68
63.83047485 5.13355112 -41.19483185 58 125 68
63.85126495 5.19038773 -41.14389038 58 125 68
63.80997467 5.17631721 -41.18555832 58 125 68
63.76385117 5.15404034 -41.24539566 58 125 68
64.26342010 4.53782034 -41.54592133 58 125 68
64.11757660 4.90753746 -41.16243362 58 125 68
64.07822418 4.91022158 -41.16981125 58 125 68
64.07389069 4.99863625 -41.11291504 58 125 68
64.00135803 4.97435188 -41.03389359 58 125 68
64.03556061 5.04410410 -41.05509949 58 125 68
63.99969101 5.01483488 -41.10783005 58 125 68
63.96313477 5.01423407 -41.11843109 58 125 68
63.92452240 5.00496721 -41.14213562 58 125 68
63.88593292 4.99710798 -41.16570282 58 125 68
64.28377533 4.50664377 -41.17897034 58 125 68
64.16893768 4.55327654 -41.26264954 58 125 68
64.06010437 4.58300638 -41.35587311 58 125 68
63.99176788 4.57561541 -41.19183731 58 125 68
63.92499161 4.53228331 -41.35714340 58 125 68
63.87746048 4.56604385 -41.33286667 58 125 68
64.29553223 4.52871037 -41.23125458 58 125 68
64.09610748 4.56604147 -41.35293579 58 125 68
64.01323700 4.58411789 -41.24759674 58 125 68
63.95096207 4.56864548 -41.07975388 58 125 68
63.77220917 4.56188011 -41.33766174 58 125 68
64.20145416 4.55524254 -41.24358749 58 125 68
64.01592255 4.57748079 -41.27460861 58 125 68
63.95279312 4.56971121 -41.09002686 58 125 68
63.87249374 4.56234121 -41.33345795 58 125 68
64.11539459 4.56427383 -41.31345749 58 125 68
64.06636810 4.57001877 -41.32294464 58 125 68
63.98808289 4.58434343 -41.22314835 58 125 68
63.91516876 4.50352669 -41.44647598 58 125 68
63.73394775 4.55378771 -41.32764435 58 125 68
64.19018555 4.95353317 -41.16178894 58 125 68
64.15661621 4.91939831 -41.22434235 58 125 68
64.12682343 5.01887465 -41.17528534 58 125 68
64.09870911 4.90972376 -41.17013168 58 125 68
64.07155609 5.00801229 -41.12344360 58 125 68
64.05086517 5.09934664 -41.07872772 58 125 68
64.01698303 5.02036095 -41.04320145 58 125 68
64.01651001 5.10390759 -41.08514404 58 125 68
63.97901154 4.98685503 -41.10464478 58 125 68
63.98221970 5.09521770 -41.11354828 58 125 68
63.93997192 4.98410177 -41.12190247 58 125 68
63.92279816 5.02916813 -41.14885330 58 125 68
63.91050720 5.09323215 -41.14820862 58 125 68
63.85685349 4.96708965 -41.17442703 58 125 68
63.84056854 5.00776768 -41.21337128 58 125 68
64.29319000 5.01673508 -41.36356735 58 125 68
64.24442291 5.04645443 -41.32685471 58 125 68
64.17745972 5.02185392 -41.50244904 58 125 68
64.13484192 5.02455378 -41.51710510 58 125 68
64.11655426 5.02292681 -41.32355499 58 125 68
64.08264923 5.01256847 -41.45721054 58 125 68
64.04800415 5.02071953 -41.56549072 58 125 68
64.02860260 5.19737673 -41.05181122 58 125 68
64.00094604 5.26249075 -41.02768707 58 125 68
63.97720337 5.30744314 -41.03342819 58 125 68
63.95553970 5.18988895 -41.09402466 58 125 68
63.94680786 5.31897831 -41.02622604 58 125 68
63.91897964 5.19343996 -41.10403824 58 125 68
63.91341400 5.31142521 -41.05796051 58 125 68
63.88056183 5.18931341 -41.12789536 58 125 68
63.88046265 5.31376362 -41.07009506 58 125 68
63.84083176 5.18647194 -41.15047836 58 125 68
63.84698868 5.31396294 -41.08848953 58 125 68
63.79236603 5.15961838 -41.21846390 58 125 68
63.80902863 5.30503607 -41.12672043 58 125 68
63.76878738 5.29341412 -41.17246628 58 125 68
63.95202255 5.46728230 -41.01779556 58 125 68
63.78537750 5.47836018 -41.10319901 58 125 68
66.58483887 4.98602343 -43.62670517 58 125 68
65.47506714 5.26756382 -42.74919891 58 125 68
65.33531189 5.26794481 -42.76832962 58 125 68
66.91210175 5.24387980 -45.10578918 58 125 68
65.41099548 5.26828814 -43.73761368 58 125 68
65.24893951 5.26211214 -43.79104996 58 125 68
67.17490387 4.88633585 -43.04052734 58 125 68
66.83401489 4.92048120 -43.20578384 58 125 68
66.59994507 4.90692616 -43.19578171 58 125 68
66.29487610 4.51708889 -43.55772018 58 125 68
65.89229584 4.87652826 -43.20210266 58 125 68
63.96932602 5.36787701 -41.02869034 58 125 68
63.93804932 5.37849188 -41.02239609 58 125 68
63.90533447 5.37755871 -41.03964996 58 125 68
63.92007065 5.42070532 -41.00270462 58 125 68
63.93334198 5.44123697 -41.00646591 58 125 68
63.83515549 5.37215424 -41.08410263 58 125 68
63.90459061 5.45013380 -40.99824905 58 125 68
63.80250168 5.38244772 -41.08045578 58 125 68
63.87167358 5.44153309 -41.03147888 58 125 68
63.75932693 5.36762714 -41.13441849 58 125 68
63.84103012 5.44521284 -41.03638458 58 125 68
63.86174011 5.46555519 -41.02925491 58 125 68
63.74279785 5.39816380 -41.13749695 58 125 68
63.76927948 5.43322468 -41.09925461 58 125 68
63.72891617 5.42201710 -41.14378357 58 125 68
64.27954102 4.99907398 -41.33884048 58 125 68
64.19998932 4.98770905 -41.21138000 58 125 68
64.23373413 5.02531576 -41.30694580 58 125 68
64.15373230 5.02258062 -41.25691605 58 125 68
64.11452484 5.02021027 -41.27333832 58 125 68
64.11249542 5.05259895 -41.29880142 58 125 68
64.03617096 5.11697388 -41.07483673 58 125 68
64.07431793 5.02143955 -41.36215210 58 125 68
63.99921417 5.11175585 -41.09624100 58 125 68
64.03224945 5.21145582 -41.05614853 58 125 68
63.96125031 5.10362339 -41.12205887 58 125 68
63.99973679 5.21685648 -41.05771637 58 125 68
63.92319107 5.10200834 -41.13879395 58 125 68
63.96594620 5.21542597 -41.07101822 58 125 68
63.88128281 5.08953238 -41.17375565 58 125 68
63.93120193 5.20440531 -41.10155487 58 125 68
63.83900833 5.07825804 -41.20716095 58 125 68
63.89635086 5.20813608 -41.10624313 58 125 68
63.90721512 5.25819254 -41.07292175 58 125 68
63.80138016 5.11398315 -41.23461533 58 125 68
63.83505630 5.23724031 -41.13161469 58 125 68
63.79335022 5.21593142 -41.18412399 58 125 68
64.16821289 4.95358992 -41.16056061 58 125 68
64.13273621 4.92548990 -41.21026611 58 125 68
64.07115173 4.93618298 -41.05084610 58 125 68
64.08962250 4.98689985 -41.13679886 58 125 68
64.08329773 5.01450205 -41.17749023 58 125 68
64.02244568 5.01428604 -41.04545212 58 125 68
64.04542542 5.10255051 -41.05780411 58 125 68
63.98461914 4.98172569 -41.09870148 58 125 68
64.01075745 5.09175539 -41.08468628 58 125 68
63.94658279 4.97876072 -41.11571884 58 125 68
63.93982315 5.01561213 -41.14180756 58 125 68
63.93929291 5.06805706 -41.13861847 58 125 68
63.86623764 4.96846104 -41.15382385 58 125 68
63.86136246 5.00227404 -41.18354416 58 125 68
63.82061768 4.99744654 -41.20233917 58 125 68
63.77403259 5.00988245 -41.26916504 58 125 68
64.09526825 4.57383108 -41.30369186 58 125 68
64.08071136 4.58177853 -41.41200256 58 125 68
64.08731842 4.94235182 -41.15852737 58 125 68
64.04833984 5.02040577 -41.06352234 58 125 68
63.94962311 4.57850122 -41.34328842 58 125 68
63.89885330 4.56963444 -41.36783600 58 125 68
63.90250778 4.98945618 -41.14640045 58 125 68
64.19061279 4.57368660 -41.24672699 58 125 68
64.16981506 4.57488012 -41.48717117 58 125 68
64.08339691 4.58155489 -41.38738251 58 125 68
64.00177765 4.58645725 -41.29022217 58 125 68
64.02469635 4.97931528 -41.03034210 58 125 68
64.01601410 5.02797842 -41.05812454 58 125 68
63.91468811 4.50043964 -41.65926361 58 125 68
63.86748505 4.98487186 -41.16329193 58 125 68
64.14792633 4.97634983 -41.18708801 58 125 68
64.08197784 4.57961512 -41.40471649 58 125 68
64.08340454 4.95391273 -41.14578247 58 125 68
64.04547119 5.02593422 -41.06388474 58 125 68
64.03536987 5.07954025 -41.08164215 58 125 68
64.00080109 5.06597900 -41.11292267 58 125 68
63.90780258 4.53516054 -41.63818741 58 125 68
63.93530273 4.99532270 -41.14391708 58 125 68
63.89620590 4.99313641 -41.16063309 58 125 68
63.85728836 4.98895645 -41.17834854 58 125 68
63.81264114 5.03305864 -41.23048401 58 125 68
64.24591827 5.02606773 -41.30905533 58 125 68
64.21847534 4.91637039 -41.29734421 58 125 68
64.16477203 5.00535107 -41.18610382 58 125 68
64.14701080 5.02513885 -41.25288391 58 125 68
64.10747528 4.98191833 -41.15264130 58 125 68
64.08827972 5.01819038 -41.19648361 58 125 68
64.09530640 5.03188038 -41.36787796 58 125 68
64.04784393 5.10569763 -41.08090973 58 125 68
64.05324554 5.16744184 -41.15615845 58 125 68
64.01312256 5.12267160 -41.06896591 58 125 68
64.02021027 5.23798656 -41.05147552 58 125 68
63.97690964 5.11591482 -41.09307098 58 125 68
63.96596909 5.18031645 -41.08337402 58 125 68
63.91189194 5.02708292 -41.15887833 58 125 68
63.93070221 5.17044735 -41.11512375 58 125 68
63.86871338 5.01400089 -41.19264984 58 125 68
63.89429855 5.16428614 -41.13844681 58 125 68
63.89208221 5.23857880 -41.10985184 58 125 68
63.81708908 5.06429577 -41.23326874 58 125 68
63.81645203 5.14527273 -41.20170593 58 125 68
63.76737213 5.11156607 -41.27752686 58 125 68
64.18461609 5.01895237 -41.46840668 58 125 68
64.09485626 5.02746201 -41.49159622 58 125 68
64.01223755 5.28989506 -41.05093765 58 125 68
63.99220657 5.34487677 -41.04009247 58 125 68
63.97582245 5.40358019 -41.01198578 58 125 68
63.94693756 5.30631304 -41.05245209 58 125 68
63.94681931 5.40996122 -41.01494217 58 125 68
63.91094971 5.29733372 -41.08509445 58 125 68
63.91800690 5.41574717 -41.01868057 58 125 68
63.87910080 5.31430197 -41.06864166 58 125 68
63.89035416 5.42381620 -41.01875305 58 125 68
63.84255981 5.31156445 -41.09080887 58 125 68
63.85843658 5.42129850 -41.04252625 58 125 68
63.80291367 5.30065489 -41.12927628 58 125 68
63.82537079 5.41942453 -41.06579208 58 125 68
63.81953049 5.46702099 -41.05867004 58 125 68
63.78666306 5.46594858 -41.08249664 58 125 68
63.75283051 5.46339703 -41.11055374 58 125 68
66.58893585 4.96271658 -43.65828705 58 125 68
65.39233398 5.28232908 -42.75823212 58 125 68
65.34519196 5.20028734 -43.69187927 58 125 68
65.17580414 5.22405386 -43.68106842 58 125 68
65.29526520 4.98601961 -49.33993912 58 125 68
67.16822052 5.05593491 -42.90022659 58 125 68
66.79415894 4.91711330 -43.19937134 58 125 68
66.59901428 4.92350674 -43.53163910 58 125 68
65.99963379 4.89893866 -43.19880295 58 125 68
64.28662872 5.03605366 -41.35639191 58 125 68
64.16499329 5.03257418 -41.49633026 58 125 68
64.12275696 5.03025103 -41.51656342 58 125 68
64.07918549 5.02625322 -41.53969193 58 125 68
64.03558350 5.02806187 -41.55444336 58 125 68
64.00681305 5.31593370 -41.05731201 58 125 68
63.97676086 5.33123112 -41.04056931 58 125 68
63.98208237 5.35891390 -41.04351425 58 125 68
63.90544510 5.28870106 -41.08623505 58 125 68
63.95354462 5.37680340 -41.02069092 58 125 68
63.87088013 5.28890324 -41.10008240 58 125 68
63.92396545 5.37908268 -41.02975845 58 125 68
63.83725357 5.29486513 -41.10527420 58 125 68
63.89230728 5.37333488 -41.05116653 58 125 68
63.79130936 5.26927853 -41.16761398 58 125 68
63.85949707 5.36962175 -41.07184219 58 125 68
63.87489319 5.40421772 -41.04686356 58 125 68
63.84265137 5.40024090 -41.06592178 58 125 68
63.81002045 5.39744520 -41.08341217 58 125 68
63.77189255 5.38401318 -41.12361145 58 125 68
64.25395966 4.97238111 -41.30326462 58 125 68
64.18936920 4.95581055 -41.17797852 58 125 68
64.20748901 5.02177763 -41.24478149 58 125 68
64.15486908 4.91854763 -41.23884964 58 125 68
64.16567993 5.05412388 -41.20930862 58 125 68
64.10916138 4.99275637 -41.15674973 58 125 68
64.10025787 5.02147007 -41.20095444 58 125 68
64.09411621 5.02034235 -41.28197861 58 125 68
64.03309631 5.06441975 -41.08917999 58 125 68
64.05550385 5.13638449 -41.12245560 58 125 68
64.05244446 5.17776060 -41.13009644 58 125 68
64.02073669 5.22977304 -41.05717850 58 125 68
63.91961670 5.03887510 -41.16312027 58 125 68
63.95433044 5.16682005 -41.10917664 58 125 68
63.87928391 5.03508759 -41.18301010 58 125 68
63.87892151 5.09108591 -41.17929840 58 125 68
63.92541122 5.23092270 -41.08419800 58 125 68
63.89124298 5.21847486 -41.11262894 58 125 68
63.85628128 5.21418476 -41.12953568 58 125 68
63.76333237 5.14332914 -41.26888657 58 125 68
64.18979645 5.02987766 -41.16667557 58 125 68
64.13489532 4.58103609 -41.45248795 58 125 68
64.12933350 4.96797705 -41.18099594 58 125 68
64.07518005 4.94288492 -41.05701065 58 125 68
64.09046173 5.01153469 -41.13533783 58 125 68
64.03845978 4.97546482 -41.03189087 58 125 68
64.05369568 5.05440664 -41.08992004 58 125 68
64.00270081 4.98364305 -41.03282166 58 125 68
63.99190521 5.00221109 -41.09783554 58 125 68
63.95347595 4.98548889 -41.13043594 58 125 68
63.94818878 5.04200220 -41.13846970 58 125 68
63.94690323 5.11370945 -41.12124252 58 125 68
63.87276459 4.95803452 -41.18833542 58 125 68
63.86959839 5.01954651 -41.19195175 58 125 68
63.82810211 5.00495577 -41.22435379 58 125 68
63.78544235 4.99389791 -41.25204849 58 125 68
64.08201599 4.59247112 -41.39200592 58 125 68
64.02709198 5.01240873 -41.03372955 58 125 68
63.94314957 5.08264828 -41.13996887 58 125 68
63.82702255 5.04489374 -41.22924805 58 125 68
64.24661255 4.96035194 -41.28783035 58 125 68
64.17391968 4.99665260 -41.16733932 58 125 68
64.13719177 4.99627542 -41.18108368 58 125 68
64.12866974 5.02071428 -41.24590683 58 125 68
64.07481384 4.99071884 -41.11964417 58 125 68
64.06454468 5.01476669 -41.18206024 58 125 68
64.01247406 5.00237989 -41.03672409 58 125 68
64.00257874 5.01808882 -41.10935211 58 125 68
63.96524429 5.00802565 -41.13381195 58 125 68
63.92756653 5.01058531 -41.14362335 58 125 68
63.92392731 5.07656813 -41.14800262 58 125 68
63.88467789 5.06511736 -41.17697525 58 125 68
63.84406662 5.04623461 -41.21726227 58 125 68
63.80599594 5.10628748 -41.24084854 58 125 68
64.27068329 5.00877142 -41.31866837 58 125 68
64.22864532 5.03061533 -41.30192184 58 125 68
64.18452454 5.00685549 -41.17552948 58 125 68
64.14624786 5.00545359 -41.19136047 58 125 68
64.10725403 5.02079725 -41.18300629 58 125 68
64.09245300 5.02107525 -41.27823257 58 125 68
64.10346985 5.02558136 -41.46813965 58 125 68
64.05220795 5.17128658 -41.07343292 58 125 68
64.06366730 5.02590132 -41.48562241 58 125 68
63.99702072 5.11582899 -41.09120560 58 125 68
64.00917053 5.24718046 -41.05399323 58 125 68
64.00108337 5.30861330 -41.03946686 58 125 68
63.95304108 5.19010878 -41.08349228 58 125 68
63.97166443 5.30895281 -41.05318451 58 125 68
63.88051987 5.07609224 -41.18757629 58 125 68
63.91360474 5.24901581 -41.09117126 58 125 68
63.91460037 5.32321215 -41.05474472 58 125 68
63.84099960 5.15835333 -41.17202377 58 125 68
63.88168716 5.31394672 -41.08374023 58 125 68
63.79201126 5.11859894 -41.24951172 58 125 68
63.80410385 5.22386074 -41.17638779 58 125 68
63.75378799 5.18663740 -41.25607300 58 125 68
64.16442108 5.02839899 -41.52042389 58 125 68
64.07592010 5.02593851 -41.56142426 58 125 68
64.00572968 5.34685278 -41.03015518 58 125 68
63.97418594 5.34800720 -41.03985977 58 125 68
63.96032333 5.40285063 -41.02429199 58 125 68
63.94969940 5.45366335 -41.00622177 58 125 68
63.91132355 5.35539484 -41.05537796 58 125 68
63.90307617 5.41773510 -41.02500153 58 125 68
63.89552307 5.46632528 -41.01088715 58 125 68
63.84049988 5.34637737 -41.10502243 58 125 68
63.83998108 5.41552401 -41.06008530 58 125 68
63.83377457 5.46272373 -41.05475616 58 125 68
63.80223465 5.46231556 -41.07217789 58 125 68
63.76643372 5.45597839 -41.10524368 58 125 68
63.73104477 5.45421743 -41.13146210 58 125 68
66.62367249 4.92957926 -43.62607956 58 125 68
67.49066925 5.24690437 -46.89566803 58 125 68
65.42961121 5.22096920 -49.37988281 58 125 68
65.40790558 5.27967453 -42.80952072 58 125 68
65.38862610 5.27746820 -43.75541306 58 125 68
65.22949982 5.27563524 -43.79681778 58 125 68
68.68970490 4.90837908 -43.56050110 58 125 68
67.18144226 4.92988348 -42.88816071 58 125 68
67.17607117 4.76321650 -42.98535919 58 125 68
66.85305023 4.92109728 -43.18905640 58 125 68
66.62499237 4.91533709 -43.17935944 58 125 68
66.03740692 4.89673901 -43.19731522 58 125 68
63.89884949 5.46762991 -41.01702118 58 125 68
63.86128235 5.44723272 -41.12957764 58 125 68
63.84257507 5.48321056 -41.06704330 58 125 68
63.81062317 5.48225212 -41.08353424 58 125 68
63.77608490 5.47890902 -41.10640335 58 125 68
63.74118423 5.47670841 -41.12766647 58 125 68
64.27089691 5.05942059 -41.32211304 58 125 68
64.19495392 5.03274918 -41.47603989 58 125 68
64.11910248 5.03100920 -41.41678238 58 125 68
64.11447144 5.03101826 -41.50520706 58 125 68
64.04818726 5.20588827 -41.10168076 58 125 68
64.04122162 5.20980740 -41.16469955 58 125 68
64.03079987 5.03201056 -41.52952957 58 125 68
64.02931213 5.03407955 -41.61372757 58 125 68
63.98291016 5.30580473 -41.03644943 58 125 68
63.98478317 5.37685490 -41.03179550 58 125 68
63.88281250 5.24359131 -41.10671616 58 125 68
63.88521957 5.29076481 -41.09365082 58 125 68
63.89252472 5.34387016 -41.06250381 58 125 68
63.85860825 5.33407402 -41.08927917 58 125 68
63.82043839 5.31806421 -41.12879181 58 125 68
63.83814240 5.37931252 -41.07243729 58 125 68
63.79714584 5.35251713 -41.13109589 58 125 68
64.29666138 5.00473404 -41.35680771 58 125 68
64.25260925 5.03846502 -41.31943512 58 125 68
64.19165039 5.04317474 -41.15653610 58 125 68
64.15843201 5.01737452 -41.20159912 58 125 68
64.14820862 5.03789139 -41.26090240 58 125 68
64.09616852 5.01204729 -41.14287949 58 125 68
64.08542633 5.02193260 -41.21842194 58 125 68
64.07493591 5.02648354 -41.30008698 58 125 68
64.02542877 5.06688213 -41.09773254 58 125 68
64.01670837 5.14813709 -41.07399368 58 125 68
64.03608704 5.25964642 -41.05192947 58 125 68
63.97995758 5.11246538 -41.13150787 58 125 68
63.97738647 5.19904518 -41.08651352 58 125 68
63.91196442 5.03403234 -41.17413330 58 125 68
63.90948868 5.11043310 -41.15554428 58 125 68
63.94573593 5.25767851 -41.07914352 58 125 68
63.87162399 5.10564280 -41.17418289 58 125 68
63.84643936 5.24164200 -41.13072586 58 125 68
64.22708893 4.92733049 -41.30131912 58 125 68
64.17470551 5.04340124 -41.16473007 58 125 68
64.13209534 4.93083954 -41.13737106 58 125 68
64.14176941 5.03018188 -41.19240189 58 125 68
64.09529114 4.92263222 -41.15698242 58 125 68
64.09846497 5.02587700 -41.30601501 58 125 68
64.06128693 5.15657187 -41.13290024 58 125 68
63.97653580 5.05304909 -41.12862778 58 125 68
63.97121811 5.22610712 -41.06113052 58 125 68
63.85932922 5.01646662 -41.20783234 58 125 68
63.87105179 5.19997978 -41.12787628 58 125 68
64.28984833 4.98561239 -41.33877945 58 125 68
64.24466705 5.02812815 -41.29401779 58 125 68
64.19306183 4.98571873 -41.17879486 58 125 68
64.13644409 4.91260290 -41.19239044 58 125 68
64.11833191 5.01728582 -41.16249466 58 125 68
64.10857391 5.02052355 -41.25294495 58 125 68
64.05818176 5.02962971 -41.07819366 58 125 68
64.07196808 5.03303480 -41.24852753 58 125 68
64.02403259 5.04031324 -41.07569122 58 125 68
64.01430511 5.09490395 -41.09803772 58 125 68
63.97854233 5.07987356 -41.12740707 58 125 68
63.97517776 5.17484617 -41.08866882 58 125 68
63.90924835 4.99373102 -41.16310120 58 125 68
63.93971634 5.15248728 -41.12895584 58 125 68
63.86996078 4.98873043 -41.18043518 58 125 68
63.86406708 5.04724312 -41.20475769 58 125 68
63.82158279 5.02783680 -41.24117661 58 125 68
63.82374573 5.10727835 -41.22757721 58 125 68
64.27917480 4.97487211 -41.33169174 58 125 68
64.23195648 5.02149630 -41.28147888 58 125 68
64.18095398 5.12237453 -41.15484619 58 125 68
64.20523834 5.03510714 -41.46275711 58 125 68
64.13252258 5.02945566 -41.21344757 58 125 68
64.13085175 5.16366863 -41.19248581 58 125 68
64.09632874 5.02170706 -41.23553467 58 125 68
64.10326385 5.02836990 -41.40845871 58 125 68
64.05742645 5.14965010 -41.07704163 58 125 68
64.06466675 5.03480577 -41.41375351 58 125 68
64.04956818 5.03273153 -41.53021622 58 125 68
64.01445007 5.22906256 -41.06059265 58 125 68
64.00662994 5.30177212 -41.02941132 58 125 68
63.95508194 5.14207745 -41.11950684 58 125 68
63.97654343 5.29731512 -41.04631805 58 125 68
63.97135162 5.35327387 -41.03753281 58 125 68
63.91483688 5.21371269 -41.11562729 58 125 68
63.83465958 5.09337330 -41.22245407 58 125 68
63.77272034 5.02104855 -41.33728027 58 125 68
63.85050583 5.29018116 -41.10534286 58 125 68
63.85657883 5.36096096 -41.07233429 58 125 68
63.78355026 5.33695126 -41.14048386 58 125 68
64.16121674 5.03788519 -41.50586319 58 125 68
64.07448578 5.03436279 -41.54393387 58 125 68
63.98072433 5.35399151 -41.05013657 58 125 68
63.95243073 5.37115335 -41.03216553 58 125 68
63.91991043 5.36651230 -41.05186081 58 125 68
63.91580200 5.43668127 -41.00690842 58 125 68
63.90705109 5.47521210 -41.01263046 58 125 68
63.85294724 5.35873318 -41.09147644 58 125 68
63.84936523 5.41837358 -41.06757355 58 125 68
63.84770584 5.47034264 -41.04899979 58 125 68
63.81451797 5.46397018 -41.07881927 58 125 68
63.78031158 5.45965099 -41.10408401 58 125 68
63.74576950 5.45648003 -41.12774658 58 125 68
66.89555359 4.92003012 -43.18326950 58 125 68
66.63997650 4.91202068 -43.60300446 58 125 68
66.21868896 4.84327650 -43.36871719 58 125 68
65.45724487 4.94925737 -43.69275284 58 125 68
65.37770844 4.90799284 -43.26353455 58 125 68
65.29380035 4.91092014 -43.27402496 58 125 68
65.76760864 5.28532410 -45.17866516 58 125 68
65.11174011 4.96895552 -46.90072250 58 125 68
65.50664520 5.29937744 -43.70981216 58 125 68
65.34858704 5.28824520 -43.76220703 58 125 68
65.46044922 5.26299143 -45.49449921 58 125 68
65.13924408 4.92768002 -46.89677048 58 125 68
67.16494751 5.02899647 -42.89319992 58 125 68
66.60467529 4.86674166 -43.49054337 58 125 68
65.91048431 4.94021082 -43.20186615 58 125 68
65.46160889 4.87212801 -42.85629272 58 125 68
65.33565521 4.91469860 -43.27085114 58 125 68
63.72908020 5.47129679 -41.18153763 58 125 68
64.21878815 5.03430510 -41.46910477 58 125 68
64.14608765 5.02825022 -41.41556168 58 125 68
64.10504913 5.02667713 -41.42967606 58 125 68
64.06386566 5.02568960 -41.44299698 58 125 68
64.03067780 5.19479418 -41.20324326 58 125 68
64.01368713 5.02990913 -41.53469086 58 125 68
64.00691223 5.03106356 -41.61468506 58 125 68
63.97546387 5.35548592 -41.03681564 58 125 68
63.94829559 5.36229706 -41.03314590 58 125 68
63.92024231 5.36649084 -41.03524780 58 125 68
63.92527008 5.40646505 -41.01726151 58 125 68
63.85170746 5.31426716 -41.08382416 58 125 68
63.89378738 5.39681578 -41.04372787 58 125 68
63.90357590 5.43643570 -41.01956177 58 125 68
63.81713867 5.33457184 -41.11785126 58 125 68
63.82427597 5.36773586 -41.11078262 58 125 68
63.84357071 5.42381334 -41.05675507 58 125 68
63.80653381 5.40573263 -41.09689713 58 125 68
63.77128601 5.39428186 -41.12525940 58 125 68
64.23468018 4.98527479 -41.28142166 58 125 68
64.16916656 5.02010298 -41.17242050 58 125 68
64.13291931 5.02233171 -41.17959976 58 125 68
64.09658813 5.02108908 -41.19177246 58 125 68
64.08388519 5.01844025 -41.27883530 58 125 68
64.09981537 5.02795506 -41.42348099 58 125 68
64.05049133 5.16424274 -41.09732437 58 125 68
64.06287384 5.02765989 -41.43269730 58 125 68
64.02070618 5.20082521 -41.05700302 58 125 68
64.01313019 5.24991369 -41.05436707 58 125 68
63.95896530 5.10883951 -41.12141418 58 125 68
63.98478317 5.26278734 -41.04404068 58 125 68
63.92383194 5.10904169 -41.12940216 58 125 68
63.95162201 5.23625565 -41.08974457 58 125 68
63.88412857 5.08638763 -41.16787720 58 125 68
63.88594437 5.16985655 -41.13102722 58 125 68
63.88415146 5.21660137 -41.13186264 58 125 68
63.89311600 5.29492426 -41.07733536 58 125 68
63.77442551 5.22256994 -41.20954514 58 125 68
64.26994324 4.53969097 -41.56302643 58 125 68
64.22442627 4.97317600 -41.27021790 58 125 68
64.16632843 4.93667459 -41.24162292 58 125 68
64.12516785 5.01097727 -41.16459274 58 125 68
64.06898499 4.99561071 -41.11227417 58 125 68
64.00007629 5.01679516 -41.10676193 58 125 68
63.98817825 5.07300091 -41.12519836 58 125 68
63.91661072 5.14668179 -41.12489319 58 125 68
63.91805267 5.22645378 -41.09166718 58 125 68
63.79602432 5.13620567 -41.24123764 58 125 68
64.26965332 4.53708887 -41.56446838 58 125 68
64.22356415 4.97792244 -41.26454163 58 125 68
64.16550446 4.94684839 -41.22980118 58 125 68
64.10671234 4.92888355 -41.17472839 58 125 68
64.06578827 5.14340782 -41.17797470 58 125 68
63.99929810 5.01575899 -41.10522079 58 125 68
63.98181915 5.25348663 -41.05098343 58 125 68
63.88032913 5.13080835 -41.16135025 58 125 68
63.84057617 5.11161375 -41.19467163 58 125 68
64.28527069 5.00081158 -41.33600616 58 125 68
64.24217987 5.03597021 -41.29939270 58 125 68
64.20103455 5.01460552 -41.17338181 58 125 68
64.19506073 5.02526951 -41.42159653 58 125 68
64.12892914 5.02479887 -41.17883682 58 125 68
64.11303711 5.01993895 -41.27336884 58 125 68
64.12010956 5.03028440 -41.43879700 58 125 68
64.07605743 5.01558352 -41.28812408 58 125 68
