74.44808960 6.72370195 -39.17917252 200 76 58
74.44106293 6.78745556 -39.24942398 200 76 58
74.44525909 6.89302206 -39.18688583 200 76 58
74.44095612 6.35544968 -38.83758163 200 76 58
74.44247437 6.67925835 -39.32197952 200 76 58
74.43530273 6.64050341 -39.20820618 200 76 58
74.44830322 6.70138597 -39.28125000 200 76 58
74.44783783 6.65225887 -39.17512131 200 76 58
74.44408417 6.87410641 -39.52939224 200 76 58
74.44005585 6.82390451 -39.42282867 200 76 58
74.44121552 6.70292664 -39.22211075 200 76 58
74.44615173 6.75970793 -39.30006790 200 76 58
74.43863678 6.81671619 -39.37813568 200 76 58
74.44376373 5.50879526 -38.97105026 200 76 58
74.44260406 5.54994726 -38.94097900 200 76 58
74.44676208 5.52008104 -38.82719421 200 76 58
74.44472504 5.57521629 -38.91421890 200 76 58
74.44489288 5.72569084 -39.19290924 200 76 58
74.44594574 5.68586683 -39.08546448 200 76 58
74.44125366 6.21253967 -39.85362244 200 76 58
74.43544769 6.15788507 -39.74700546 200 76 58
74.44350433 6.81499434 -40.58368683 200 76 58
74.44988251 5.24886131 -39.80858231 200 76 58
74.44654846 5.28043509 -39.80593872 200 76 58
74.44283295 5.29673481 -39.81193161 200 76 58
74.44048309 5.36041641 -39.89922714 200 76 58
74.44200134 5.42455339 -39.98819351 200 76 58
74.44473267 6.03731966 -40.78039169 200 76 58
74.43278503 4.49727345 -39.84506989 200 76 58
74.43593597 4.52433348 -39.86854935 200 76 58
74.44342041 4.48079014 -40.81477737 200 76 58
74.43769836 5.14256287 -41.71366882 200 76 58
74.43851471 5.14652014 -41.71958923 200 76 58
74.44582367 4.65562820 -41.67139435 200 76 58
74.45193481 4.59453964 -41.73767090 200 76 58
74.45022583 4.79884815 -41.71711731 200 76 58
74.45483398 4.71085215 -41.68511581 200 76 58
74.44320679 4.97895002 -41.73450470 200 76 58
74.40372467 4.47425175 -39.71319580 200 76 58
74.44203186 4.48234367 -39.98652649 200 76 58
74.43631744 4.98476744 -40.61935425 200 76 58
74.43502045 4.50331593 -39.38007736 200 76 58
74.43812561 5.08144474 -39.48228455 200 76 58
74.44116974 5.05989361 -39.87527466 200 76 58
74.43785858 5.26719761 -39.72867203 200 76 58
74.44204712 5.32857227 -39.81031799 200 76 58
74.44256592 5.39244938 -39.89247894 200 76 58
74.43220520 5.47422409 -40.57520294 200 76 58
74.44414520 5.06868792 -38.90477371 200 76 58
74.43832397 5.35809040 -38.86965942 200 76 58
74.44216919 5.49069548 -38.83837509 200 76 58
74.44062805 5.34449911 -39.06529617 200 76 58
74.43528748 5.47622776 -39.03492355 200 76 58
74.43314362 5.60147619 -38.99649811 200 76 58
74.43808746 5.65630817 -39.07386398 200 76 58
74.44207764 5.65399885 -39.27436066 200 76 58
74.43766022 5.82456589 -39.86399841 200 76 58
74.44281006 6.36377382 -39.96541977 200 76 58
74.43993378 6.66697454 -40.58648300 200 76 58
74.38568115 6.86313581 -40.63390350 200 76 58
74.44002533 6.26290798 -39.27555084 200 76 58
74.44049072 6.57139587 -39.25421524 200 76 58
74.44441223 6.63141775 -39.32307053 200 76 58
74.44109344 6.73399448 -39.26060486 200 76 58
74.44656372 6.61040354 -39.65473938 200 76 58
74.43556976 6.75261974 -39.46039963 200 76 58
74.43834686 6.68148232 -39.72712326 200 76 58
74.44331360 6.81586504 -39.52917480 200 76 58
74.44357300 6.75682259 -39.80094147 200 76 58
74.43894958 6.85615683 -39.73310852 200 76 58
74.44059753 6.64386225 -39.14549637 200 76 58
74.43943787 6.70335627 -39.21612167 200 76 58
74.44228363 6.73664427 -39.16285706 200 76 58
74.43740845 6.60631895 -38.84556961 200 76 58
74.44477844 6.89026165 -39.42219925 200 76 58
74.44189453 6.81001806 -39.19511795 200 76 58
74.44313049 6.86701298 -39.26798630 200 76 58
74.44059753 6.86377144 -39.23545456 200 76 58
74.43860626 5.63747072 -38.82282639 200 76 58
74.44132233 5.73201942 -38.83037949 200 76 58
74.44614410 6.53101158 -40.01505280 200 76 58
74.43738556 4.81641865 -38.89313889 200 76 58
74.43507385 4.88471222 -38.86839294 200 76 58
74.43885803 4.99023581 -39.05630875 200 76 58
74.43565369 5.04500723 -39.15079117 200 76 58
74.44310760 5.30186462 -39.62068558 200 76 58
74.44037628 5.26219845 -39.52708435 200 76 58
74.44279480 5.46496201 -39.88932800 200 76 58
74.44572449 5.42726898 -39.79547119 200 76 58
74.43352509 5.26527166 -39.51644897 200 76 58
74.44004059 5.49203205 -39.88100052 200 76 58
74.44136810 5.44231844 -39.79193115 200 76 58
74.43226624 5.37917805 -39.69678497 200 76 58
74.43516541 5.43722153 -39.78752899 200 76 58
74.43709564 5.49578571 -39.87633133 200 76 58
74.42476654 6.02495813 -40.57415009 200 76 58
74.43732452 4.48227215 -39.74721146 200 76 58
74.40362549 4.47901154 -39.58842850 200 76 58
74.43379211 4.53225660 -39.68527603 200 76 58
74.43711090 4.68350935 -39.95027924 200 76 58
74.43285370 4.72465181 -39.97115326 200 76 58
74.43199921 4.74033213 -39.98814392 200 76 58
74.43589783 5.16596127 -40.59768295 200 76 58
74.44050598 4.50603962 -40.77156067 200 76 58
74.37255859 4.48479366 -40.63537979 200 76 58
74.43194580 5.23122358 -41.72213364 200 76 58
74.37560272 4.48568010 -41.61515808 200 76 58
74.43619537 4.49271822 -41.46384048 200 76 58
74.41695404 4.48684788 -41.59754181 200 76 58
74.44777679 4.67908525 -41.57032394 200 76 58
74.44961548 4.83489561 -41.77936554 200 76 58
74.42998505 4.49092484 -40.73967743 200 76 58
74.43965149 5.11032677 -41.77267456 200 76 58
74.37103271 4.48582077 -39.65424347 200 76 58
74.43746948 4.67731524 -39.93940353 200 76 58
74.43723297 4.74806643 -40.03044510 200 76 58
74.43928528 4.96929932 -39.87482071 200 76 58
74.43816376 4.79424429 -38.90196991 200 76 58
74.43687439 5.07994461 -38.85980606 200 76 58
74.43804169 5.30455399 -39.18934631 200 76 58
74.44371033 5.36282110 -39.48355865 200 76 58
74.43976593 5.25468826 -39.75332260 200 76 58
74.43858337 5.42630768 -39.56629181 200 76 58
74.43611145 5.32572651 -39.84195709 200 76 58
74.44224548 5.48771048 -39.64781189 200 76 58
74.43390656 5.39753580 -39.92907715 200 76 58
74.44014740 5.61525488 -39.80950165 200 76 58
74.43847656 5.64882135 -40.03731918 200 76 58
74.42758942 6.42250967 -40.58603668 200 76 58
74.43899536 5.56951904 -38.98255539 200 76 58
74.43847656 5.69645739 -39.15386200 200 76 58
74.44268799 6.08497620 -39.24702454 200 76 58
74.43551636 6.31105042 -39.34074020 200 76 58
74.44185638 6.41635513 -39.82040787 200 76 58
74.44160461 6.51049614 -39.75831223 200 76 58
74.44191742 6.59716463 -39.68834686 200 76 58
74.44022369 6.55479431 -39.96876144 200 76 58
74.44138336 6.71812439 -39.82693863 200 76 58
74.43647003 6.67780304 -39.27940369 200 76 58
74.43394470 6.74390411 -39.35070038 200 76 58
74.44447327 6.81402349 -39.42140198 200 76 58
74.44078064 6.65999746 -38.84619522 200 76 58
74.43735504 6.18188477 -39.20473480 200 76 58
74.44091797 6.51984644 -39.69605637 200 76 58
74.43455505 6.53711081 -39.65942383 200 76 58
74.44169617 6.60095453 -39.73377991 200 76 58
74.44005585 6.66471624 -39.80817413 200 76 58
74.43732452 6.66611338 -39.78699875 200 76 58
74.44068146 6.65197372 -39.77056503 200 76 58
74.43646240 6.77577400 -39.93049240 200 76 58
74.43714142 5.04909754 -38.93838882 200 76 58
74.43952179 5.10702085 -38.91544724 200 76 58
74.43337250 5.16534519 -38.86314774 200 76 58
74.43925476 5.33825588 -39.27116394 200 76 58
74.43666840 5.30991554 -39.16395950 200 76 58
74.43497467 5.26687622 -39.04690170 200 76 58
74.44104767 5.61185408 -39.71870804 200 76 58
74.44419861 5.47690058 -39.42708206 200 76 58
74.43553162 4.51156139 -39.35227203 200 76 58
74.42704773 4.92504120 -39.99984741 200 76 58
74.43315125 4.86769390 -39.83185959 200 76 58
74.43546295 4.87669182 -39.83671951 200 76 58
74.43790436 5.64872360 -40.89683914 200 76 58
74.43922424 4.50121737 -40.58812714 200 76 58
74.45727539 4.48841286 -41.42601776 200 76 58
74.44747925 4.66383123 -41.68839645 200 76 58
74.44848633 4.49035072 -41.52735519 200 76 58
74.42849731 4.48726988 -40.73987961 200 76 58
74.44478607 4.63154888 -41.73659134 200 76 58
74.44787598 5.06519699 -41.75850296 200 76 58
74.42013550 4.75821590 -40.59010696 200 76 58
74.42856598 4.87408876 -39.82385635 200 76 58
74.43345642 5.01880884 -40.00977707 200 76 58
74.43711853 5.29020262 -39.73054504 200 76 58
74.44213104 5.35076904 -39.81241608 200 76 58
74.43564606 5.41310406 -39.89239883 200 76 58
74.44419098 5.06296253 -38.82172394 200 76 58
74.43285370 5.12861395 -38.91526413 200 76 58
74.43727875 5.42996836 -38.89564896 200 76 58
74.43836975 5.57087851 -38.87242889 200 76 58
74.44030762 5.40550184 -39.08028030 200 76 58
74.43975067 5.62311888 -38.94910431 200 76 58
74.43434906 5.38726807 -39.27517700 200 76 58
74.43671417 5.52954865 -39.24921417 200 76 58
74.43347168 5.65895033 -39.21788406 200 76 58
74.43408203 5.78391933 -39.17809296 200 76 58
74.43852234 6.29769135 -39.83520889 200 76 58
74.43342590 6.70876837 -40.58540726 200 76 58
74.43704987 6.19776297 -39.16162491 200 76 58
74.43679810 6.40250111 -39.19805908 200 76 58
74.43498230 6.52528811 -39.34202194 200 76 58
74.44050598 6.58896065 -39.41319275 200 76 58
74.43341064 6.70386219 -39.35858536 200 76 58
74.43562317 6.59879875 -39.61132050 200 76 58
74.43423462 6.71755934 -39.55362320 200 76 58
74.44126129 6.86954832 -39.35994339 200 76 58
74.43424988 6.74237156 -39.75747681 200 76 58
74.43835449 6.81657934 -39.82851028 200 76 58
74.43928528 6.34836340 -39.17247009 200 76 58
74.44559479 6.49262238 -39.44314575 200 76 58
74.43139648 6.61733150 -39.58499908 200 76 58
74.44045258 6.68290567 -39.65628433 200 76 58
74.43701172 6.47974634 -39.24215698 200 76 58
74.43864441 6.81563187 -39.79512787 200 76 58
74.44149780 6.76598215 -39.68732071 200 76 58
74.43511200 6.70944595 -39.58491898 200 76 58
74.43157196 6.64234209 -39.48001862 200 76 58
74.43933868 6.89463186 -39.82980728 200 76 58
74.43924713 6.75992775 -39.63688660 200 76 58
74.43618774 6.81985378 -39.71468353 200 76 58
74.43988037 5.32018042 -39.05903244 200 76 58
74.43264008 5.38102770 -39.14594269 200 76 58
74.43810272 5.37153864 -39.02873230 200 76 58
74.44046783 5.35042095 -38.91193390 200 76 58
74.45005035 5.48271608 -39.20156479 200 76 58
74.43701172 5.36705685 -38.87445450 200 76 58
74.44281769 5.41646004 -38.96464157 200 76 58
74.43779755 5.46767378 -39.05361557 200 76 58
74.43323517 5.51960754 -39.14206314 200 76 58
74.43779755 6.58355474 -40.59185791 200 76 58
74.44164276 5.14263630 -39.99478912 200 76 58
74.44028473 5.16331434 -39.99718094 200 76 58
74.43545532 5.16310549 -40.00029755 200 76 58
74.43958282 5.83731651 -40.88541031 200 76 58
74.42827606 4.71639490 -40.59326935 200 76 58
74.45539856 4.46894979 -41.37631607 200 76 58
74.44067383 4.69124222 -41.56237030 200 76 58
74.43997955 4.76764202 -41.67071915 200 76 58
74.43846130 4.68341208 -41.68178177 200 76 58
74.42694092 4.50310516 -40.74010468 200 76 58
74.42922974 4.80607080 -40.61942673 200 76 58
74.44001770 5.33006573 -41.74792099 200 76 58
74.43313599 4.75971985 -39.90393066 200 76 58
74.43318176 5.07420301 -39.86621857 200 76 58
74.43020630 5.14065218 -39.95144272 200 76 58
74.43501282 5.30687904 -39.95956421 200 76 58
74.42781830 5.68975258 -40.81694412 200 76 58
74.44647980 5.07745981 -38.82901001 200 76 58
74.43711853 5.04994822 -39.02093887 200 76 58
74.43575287 5.42615843 -38.88308716 200 76 58
74.43936157 5.26531839 -39.09663391 200 76 58
74.43933105 5.40200901 -39.07354355 200 76 58
74.43881226 5.46223640 -39.15596390 200 76 58
74.44177246 5.52058268 -39.23685837 200 76 58
74.43994141 5.64599943 -39.19671631 200 76 58
74.44468689 5.45108604 -39.56218719 200 76 58
74.44201660 6.29764795 -40.02271271 200 76 58
74.43801880 6.31773520 -38.82464218 200 76 58
74.43634033 6.12391043 -39.22362518 200 76 58
74.44268799 6.51461172 -39.29129028 200 76 58
74.43711090 6.57361364 -39.36200714 200 76 58
74.44314575 6.68576193 -39.30282593 200 76 58
74.44065094 6.53574848 -39.68730164 200 76 58
74.44230652 6.69532537 -39.50150299 200 76 58
74.44146729 6.79782534 -39.43651962 200 76 58
74.44255066 6.72080278 -39.70208740 200 76 58
74.43780518 6.85532093 -39.50298309 200 76 58
74.44104767 6.88639879 -39.70811462 200 76 58
74.44166565 6.87424994 -38.83318329 200 76 58
74.44235992 6.67364550 -39.22551727 200 76 58
74.44621277 6.73630810 -39.29555511 200 76 58
74.44366455 6.79897642 -39.36597061 200 76 58
74.44088745 6.86223125 -39.43513107 200 76 58
74.44057465 6.90306807 -39.34733963 200 76 58
74.43865204 5.54949284 -38.88659286 200 76 58
74.43892670 5.60323668 -38.84917450 200 76 58
74.44029999 5.71449947 -39.01922607 200 76 58
74.43709564 6.31960392 -39.83003998 200 76 58
74.44435120 6.32356691 -39.81307602 200 76 58
74.44068146 6.30907536 -39.79579926 200 76 58
74.43869019 4.78121853 -38.84794235 200 76 58
74.43028259 4.84090567 -38.94317627 200 76 58
74.43477631 4.86756039 -38.92864990 200 76 58
74.43698883 5.24461365 -39.68924713 200 76 58
74.44494629 5.28503942 -39.68131256 200 76 58
74.44403839 5.24948502 -39.58877945 200 76 58
74.43511200 5.44904375 -39.95158386 200 76 58
74.43804169 5.41459417 -39.85805893 200 76 58
74.43754578 5.37131310 -39.76658630 200 76 58
74.43746185 5.31346989 -39.67058182 200 76 58
74.43026733 5.54733753 -40.03091431 200 76 58
74.43541718 5.43110132 -39.85192108 200 76 58
74.43067932 5.49219275 -39.94078445 200 76 58
74.44554901 4.47350454 -39.84038162 200 76 58
74.42383575 4.47987938 -39.68511581 200 76 58
74.39184570 4.46763945 -39.60306168 200 76 58
74.44200897 4.66848183 -39.97549438 200 76 58
74.42611694 4.70002413 -39.99236679 200 76 58
74.43756866 5.11140203 -40.61279678 200 76 58
74.44911194 4.48071814 -40.81941986 200 76 58
74.43798065 4.46631241 -40.69528580 200 76 58
74.44142151 5.14185476 -41.68604660 200 76 58
74.42955017 4.47990799 -41.47095108 200 76 58
74.44122314 4.60924578 -41.75491714 200 76 58
74.42002869 4.48063707 -41.57799530 200 76 58
74.44171906 4.74016190 -41.68954849 200 76 58
74.44078064 4.70130587 -41.77207947 200 76 58
74.44368744 4.89404535 -41.72489929 200 76 58
74.44259644 5.29510355 -41.77421188 200 76 58
74.42694855 4.73942375 -40.60560989 200 76 58
74.43318176 5.37046289 -40.93804932 200 76 58
74.44757843 4.93658352 -40.00711441 200 76 58
74.44155121 5.17334795 -39.86299133 200 76 58
74.44377136 5.27991104 -39.78644180 200 76 58
74.44351959 5.34378862 -39.86870575 200 76 58
74.43899536 5.40849113 -39.95062637 200 76 58
74.45008850 5.88712454 -40.91387558 200 76 58
74.43257904 5.06544256 -38.94719696 200 76 58
74.43859100 5.21686602 -38.93244553 200 76 58
74.44051361 5.28061819 -39.01988983 200 76 58
74.44261169 5.41853619 -38.99497986 200 76 58
74.44179535 5.40915680 -39.19419479 200 76 58
74.43601990 5.47601557 -39.27988434 200 76 58
74.43568420 5.66574097 -39.11784363 200 76 58
74.43869781 5.72235823 -39.19466019 200 76 58
74.44651031 6.25304794 -40.03264236 200 76 58
74.43836212 6.62743664 -40.58849716 200 76 58
74.43600464 6.40149069 -38.83536530 200 76 58
74.43613434 6.49838638 -39.16564560 200 76 58
74.44111633 6.67510557 -39.18251801 200 76 58
74.43683624 6.56973028 -39.43420410 200 76 58
74.44036865 6.68334770 -39.37962341 200 76 58
74.44192505 6.78964472 -39.31733322 200 76 58
74.44009399 6.66467571 -39.71626663 200 76 58
74.44043732 6.81116199 -39.52069473 200 76 58
74.43937683 6.73993587 -39.79138947 200 76 58
74.43631744 6.76079941 -38.85040283 200 76 58
74.43915558 6.55643082 -39.60889816 200 76 58
74.44110107 6.49948788 -39.50686646 200 76 58
74.44155884 6.68846369 -39.76266861 200 76 58
74.43753815 6.88943148 -40.01473236 200 76 58
74.43794250 6.60912943 -39.64807892 200 76 58
74.44490051 6.89555120 -39.99525070 200 76 58
74.44417572 6.73614168 -39.81458282 200 76 58
74.43901062 5.06623030 -38.89524841 200 76 58
74.44561005 5.22421312 -38.96160126 200 76 58
74.43888092 5.18907928 -38.84930038 200 76 58
74.43014526 5.24369240 -38.94300842 200 76 58
74.43891907 5.35061789 -39.12678528 200 76 58
74.44387817 5.94776726 -40.02561951 200 76 58
74.43553162 4.86016512 -39.73936081 200 76 58
74.43698883 4.92830467 -39.83332062 200 76 58
74.43901825 4.96555185 -39.85036469 200 76 58
74.43331146 4.98222351 -39.86499023 200 76 58
74.43764496 5.68466663 -40.83136749 200 76 58
74.43120575 5.76435709 -40.92216492 200 76 58
74.44189453 5.62590694 -40.82087326 200 76 58
74.43957520 4.67031431 -40.62202835 200 76 58
74.42802429 4.77024651 -40.63092422 200 76 58
74.44264984 4.87922335 -41.74487305 200 76 58
74.44516754 4.69946671 -41.74427795 200 76 58
74.44044495 4.80712318 -41.78025055 200 76 58
74.44136810 4.73909235 -41.69760895 200 76 58
74.43981171 4.88245249 -41.70344543 200 76 58
74.43465424 4.66747570 -41.60284805 200 76 58
74.43994141 5.02233458 -41.77442932 200 76 58
74.43685150 4.49318171 -39.74006653 200 76 58
74.42058563 4.76974440 -40.59344101 200 76 58
74.42591095 4.82684135 -39.85197830 200 76 58
74.44129944 5.01924419 -39.86912537 200 76 58
74.43766022 5.19910288 -39.87925339 200 76 58
74.43707275 5.26757050 -39.96631622 200 76 58
74.44258881 5.42936802 -39.96407700 200 76 58
74.43715668 5.68333340 -40.88576508 200 76 58
74.44073486 4.97787189 -38.82025909 200 76 58
74.44148254 5.19445038 -38.89266586 200 76 58
74.42972565 5.26066256 -38.98313141 200 76 58
74.43750000 5.39226866 -38.95087051 200 76 58
74.44236755 5.45482922 -39.03556061 200 76 58
74.44000244 5.57764912 -38.98955154 200 76 58
74.44062805 5.45695257 -39.24620438 200 76 58
74.44177246 5.46593428 -39.46823883 200 76 58
74.43696594 6.46565771 -40.59681320 200 76 58
74.38377380 6.82691956 -40.63565826 200 76 58
74.44309998 6.50493050 -39.16011047 200 76 58
74.44044495 6.56639004 -39.23415375 200 76 58
74.43332672 6.67260504 -39.17336655 200 76 58
74.43803406 6.73132753 -39.24349213 200 76 58
74.43663025 6.65677071 -39.51319122 200 76 58
74.44153595 6.79136324 -39.31453705 200 76 58
74.43782043 6.72676659 -39.58875656 200 76 58
74.43887329 6.85035419 -39.38339233 200 76 58
74.43755341 6.77244139 -39.80794525 200 76 58
74.43630219 6.87182379 -39.73844528 200 76 58
74.43723297 6.67741632 -39.22300339 200 76 58
74.43583679 6.69939232 -39.18453598 200 76 58
74.44451141 6.76385498 -39.26065445 200 76 58
74.44020081 6.76961040 -39.23457336 200 76 58
74.43601990 6.83150768 -39.31294632 200 76 58
74.44104767 6.81960392 -39.29118347 200 76 58
74.44240570 5.51274967 -38.86618042 200 76 58
74.44509888 5.61872053 -38.93222046 200 76 58
74.44433594 5.58677387 -38.82571411 200 76 58
74.44123840 5.87484455 -39.24867249 200 76 58
74.43788147 6.46076584 -40.03464508 200 76 58
74.44027710 6.32455397 -39.86265945 200 76 58
74.43205261 6.46046972 -40.03179550 200 76 58
74.43990326 4.74984026 -38.90483093 200 76 58
74.43898773 4.83213091 -38.91679382 200 76 58
74.43374634 5.30955267 -39.73262405 200 76 58
74.43317413 5.38186646 -39.82159424 200 76 58
74.44258118 5.34798622 -39.74118423 200 76 58
74.44121552 5.30597734 -39.66068649 200 76 58
74.43250275 5.52503967 -39.99790192 200 76 58
74.43813324 5.37089205 -39.75247192 200 76 58
74.43301392 5.31025648 -39.66974640 200 76 58
74.42687225 5.55545521 -40.00584793 200 76 58
74.43404388 5.50304031 -39.93333817 200 76 58
74.42944336 5.96364641 -40.60062790 200 76 58
74.45146942 4.48756552 -39.64060974 200 76 58
74.43846893 4.63064146 -39.90147400 200 76 58
74.43812561 4.70683956 -39.99553680 200 76 58
74.43706512 4.69569302 -39.86327744 200 76 58
74.43576813 4.76393175 -39.95864487 200 76 58
74.42061615 5.21973610 -40.58601379 200 76 58
74.43134308 5.52062559 -40.97396469 200 76 58
74.42874908 4.63073683 -40.59993362 200 76 58
74.44493103 4.50853729 -40.92524338 200 76 58
74.43882751 5.11981535 -41.76926804 200 76 58
74.40821838 4.48679352 -40.72232056 200 76 58
74.44515228 4.79355288 -41.75468063 200 76 58
74.43774414 5.09191751 -41.76320267 200 76 58
74.43678284 4.52436113 -40.85921860 200 76 58
74.44898987 5.40740871 -41.77268982 200 76 58
74.43096924 4.51886129 -39.90105438 200 76 58
74.43435669 4.76919031 -39.98047256 200 76 58
74.43636322 5.48432112 -40.90441895 200 76 58
74.43222046 4.90338373 -39.91024399 200 76 58
74.43711853 4.98122215 -40.00437927 200 76 58
74.44189453 5.19144678 -39.81368637 200 76 58
74.43959808 5.28762674 -39.71958160 200 76 58
74.43854523 5.35467815 -39.80470276 200 76 58
74.43225098 5.42371655 -39.88912964 200 76 58
74.42890930 5.85289145 -40.60039902 200 76 58
74.43707275 5.02865982 -38.93374252 200 76 58
74.43521881 5.35512018 -38.92908478 200 76 58
74.43906403 5.47006750 -38.87044144 200 76 58
74.44079590 5.37164497 -39.15747070 200 76 58
74.43518829 5.48581171 -39.09894562 200 76 58
74.44200897 5.59442043 -39.03389740 200 76 58
74.43607330 5.61792183 -39.26596069 200 76 58
74.44770813 6.01804781 -39.92480850 200 76 58
74.43811798 6.23913622 -39.82735443 200 76 58
74.39733887 6.85635376 -40.64456940 200 76 58
74.43395233 6.33941507 -39.17205811 200 76 58
74.43891907 6.47949982 -39.32859039 200 76 58
74.43672180 6.57523108 -39.26415253 200 76 58
74.43696594 6.52468777 -39.55202103 200 76 58
74.44059753 6.64169884 -39.33863831 200 76 58
74.43460083 6.60267925 -39.63236237 200 76 58
74.43922424 6.71016121 -39.41247559 200 76 58
74.43522644 6.78913832 -39.33570862 200 76 58
74.44113159 6.76182270 -39.79180527 200 76 58
74.43458557 6.84823751 -39.56048965 200 76 58
74.43726349 6.92310810 -39.78848267 200 76 58
74.43852997 6.16201401 -38.84311295 200 76 58
74.43225861 6.51201296 -39.21648407 200 76 58
74.43462372 6.57894659 -39.29552460 200 76 58
74.43489075 6.64843178 -39.37488556 200 76 58
74.43493652 6.57783747 -39.28732300 200 76 58
74.43605804 6.85947466 -39.61999893 200 76 58
74.43272400 6.78752327 -39.53050232 200 76 58
74.42755127 6.71069431 -39.44917679 200 76 58
74.43461609 6.62347984 -39.36513901 200 76 58
74.43847656 6.68946981 -39.44896698 200 76 58
74.43398285 6.75559187 -39.53332138 200 76 58
74.43515015 5.30145121 -38.88671875 200 76 58
74.44122314 5.34451580 -38.88290405 200 76 58
74.44366455 5.41128302 -38.97351074 200 76 58
74.44094086 5.37170506 -38.88276672 200 76 58
74.44033051 5.58238268 -39.24013901 200 76 58
74.44221497 5.54498196 -39.14963150 200 76 58
74.44018555 5.61295843 -39.23581696 200 76 58
74.43534851 5.56335306 -39.15171051 200 76 58
74.43172455 5.55992222 -39.15201187 200 76 58
74.43221283 6.23982620 -40.02241135 200 76 58
74.42509460 6.79230261 -40.60353088 200 76 58
74.42829895 6.66115427 -40.59498978 200 76 58
74.43904114 5.23046923 -39.83891296 200 76 58
74.43732452 5.30637836 -39.92651749 200 76 58
74.43631744 5.27335119 -39.85882187 200 76 58
74.43734741 5.34693193 -39.94844055 200 76 58
74.43239594 5.23804474 -39.82560730 200 76 58
74.43354034 5.30463743 -39.91841507 200 76 58
74.41992950 5.87542820 -40.57881165 200 76 58
74.43855286 4.50542450 -39.87841415 200 76 58
74.42646027 4.52309561 -39.69844055 200 76 58
74.43688202 4.67427397 -39.94809723 200 76 58
74.42694092 4.72772598 -39.98740387 200 76 58
74.42560577 5.48817539 -40.99771500 200 76 58
74.42906952 4.78136826 -40.60499573 200 76 58
74.43466949 4.51479483 -40.88098145 200 76 58
74.43849945 5.30160713 -41.78516388 200 76 58
74.41773987 4.88726664 -40.59030151 200 76 58
74.43342590 4.64121437 -39.92680359 200 76 58
74.42854309 4.81090260 -39.90797806 200 76 58
74.43135834 5.01689672 -40.59406281 200 76 58
74.43379211 5.49086285 -40.94686127 200 76 58
74.43512726 5.62275076 -40.92636871 200 76 58
74.43389893 5.03650999 -40.02437210 200 76 58
74.44424438 5.22360992 -39.80535889 200 76 58
74.43357086 5.29978657 -39.89080429 200 76 58
74.43979645 5.37312508 -39.97993088 200 76 58
74.41050720 5.52337551 -39.95110321 200 76 58
74.43459320 6.02235460 -40.89923477 200 76 58
74.44191742 4.99861813 -38.94173813 200 76 58
74.43759918 5.30624819 -38.89489746 200 76 58
74.43112183 5.37654257 -38.98022079 200 76 58
74.43343353 5.47583628 -38.90166473 200 76 58
74.44052887 5.41669703 -39.22746658 200 76 58
74.43840790 5.53993082 -38.98360062 200 76 58
74.43518829 5.49008894 -39.31386566 200 76 58
74.43624878 5.60718775 -39.06573486 200 76 58
74.43648529 5.67263317 -39.14686966 200 76 58
74.42910767 6.43407583 -40.02686310 200 76 58
74.43170929 6.87991142 -40.63707733 200 76 58
74.43807220 6.26714516 -39.27780151 200 76 58
74.44319153 6.51573181 -39.20643997 200 76 58
74.43994904 6.58893299 -39.12469864 200 76 58
74.44207001 6.65574932 -39.19830704 200 76 58
74.43963623 6.66134691 -39.51824188 200 76 58
74.43451691 6.72098827 -39.27166748 200 76 58
74.43875122 6.73856544 -39.59480286 200 76 58
74.44125366 6.78998756 -39.34533310 200 76 58
74.44320679 6.81819201 -39.67374420 200 76 58
74.44503021 6.85924864 -39.41947174 200 76 58
74.44827271 6.89929914 -39.75149155 200 76 58
74.43579865 6.91153908 -38.89539337 200 76 58
74.43522644 6.23625851 -39.22300339 200 76 58
74.43372345 6.38337517 -39.38317490 200 76 58
74.43758392 6.15814066 -39.14680099 200 76 58
74.44107056 6.60879469 -39.62948608 200 76 58
74.43549347 6.52399111 -39.56302643 200 76 58
74.43186188 6.84366798 -39.86000824 200 76 58
74.43566132 6.75967216 -39.79238129 200 76 58
74.43756104 6.83735085 -39.87461090 200 76 58
74.44515991 6.74582958 -39.81770325 200 76 58
74.43950653 6.71380901 -39.84663773 200 76 58
74.42983246 5.11124420 -38.95205688 200 76 58
74.42671204 5.33785391 -39.22096252 200 76 58
74.43307495 5.13649368 -38.90679169 200 76 58
74.43083954 5.48709345 -39.39433289 200 76 58
74.43896484 5.44743776 -39.32195282 200 76 58
74.43513489 5.26649761 -39.09194565 200 76 58
74.43750000 5.51975775 -39.41075897 200 76 58
74.43869781 5.53600597 -39.43423462 200 76 58
74.43420410 5.89088345 -39.87796783 200 76 58
74.43672180 6.60074711 -40.60046387 200 76 58
74.43180084 5.12620640 -39.89643097 200 76 58
74.43319702 5.20539570 -39.98495102 200 76 58
74.43286133 5.15072918 -39.87732315 200 76 58
74.42986298 5.22425890 -39.96841049 200 76 58
74.42514801 5.24325228 -40.01373291 200 76 58
74.43832397 5.97055006 -40.84985733 200 76 58
74.43482971 5.89516354 -40.88114166 200 76 58
74.38313293 4.48513031 -39.60272980 200 76 58
74.43447876 4.66329098 -40.00109100 200 76 58
74.42648315 4.68418503 -39.89328384 200 76 58
74.43209076 5.13672400 -40.61624908 200 76 58
74.43159485 5.51724243 -40.99995422 200 76 58
74.43148804 4.95310307 -40.60038757 200 76 58
74.42884827 4.51185179 -39.79730988 200 76 58
74.43048096 4.74019432 -40.65220261 200 76 58
74.42726898 4.49878597 -39.77638245 200 76 58
74.43384552 4.83264780 -39.94271851 200 76 58
74.43331146 5.22844505 -40.60470200 200 76 58
74.43227386 5.56027460 -40.98044968 200 76 58
74.42580414 5.73800659 -40.85121536 200 76 58
74.43061829 4.80931854 -38.97845459 200 76 58
74.43605804 5.22864866 -39.89719391 200 76 58
74.43758392 5.30945110 -39.78518295 200 76 58
74.43657684 5.38344622 -39.67523575 200 76 58
74.43013763 5.46237135 -39.95817947 200 76 58
74.42826080 5.67453527 -40.01937866 200 76 58
74.43450165 4.99281073 -38.92039871 200 76 58
74.44055176 5.28227520 -38.84226990 200 76 58
74.43248749 5.35493803 -38.92798233 200 76 58
74.43276215 5.44651699 -38.83821869 200 76 58
74.43880463 5.40883017 -39.18802261 200 76 58
74.43849182 5.49885941 -39.09775543 200 76 58
74.43464661 5.47070789 -39.45957184 200 76 58
74.43319702 5.71990967 -39.16822052 200 76 58
74.43446350 6.56749868 -40.59534836 200 76 58
74.43466187 6.89492369 -40.60591125 200 76 58
74.43553162 6.30193710 -39.30278015 200 76 58
74.43200684 6.45742130 -39.29498291 200 76 58
74.43708038 6.53413630 -39.37501907 200 76 58
74.42726135 6.58395004 -39.11668777 200 76 58
74.43198395 6.61198139 -39.45356750 200 76 58
74.43740082 6.65420055 -39.19278336 200 76 58
74.43254852 6.69077587 -39.53250122 200 76 58
74.43305969 6.74578333 -39.43954468 200 76 58
74.42946625 6.79207993 -39.34242249 200 76 58
74.43621826 6.85310316 -39.69068146 200 76 58
74.43022919 6.45839119 -38.87608719 200 76 58
74.43027496 6.75145435 -39.18899155 200 76 58
74.43531036 6.82800484 -39.26636124 200 76 58
74.43335724 6.90415287 -39.34359360 200 76 58
74.43652344 6.82256460 -39.27157974 200 76 58
74.43379974 6.89648771 -39.35066986 200 76 58
74.43093109 6.70510912 -39.22556305 200 76 58
74.44005585 6.77750349 -39.31093597 200 76 58
74.43418121 5.51422453 -38.85996628 200 76 58
74.43306732 5.54359245 -38.86874008 200 76 58
74.43249512 5.61512804 -38.95710754 200 76 58
74.43386078 5.68618107 -39.04247284 200 76 58
74.43528748 5.62598801 -38.97438049 200 76 58
74.43009186 5.88849688 -39.28566742 200 76 58
74.43805695 5.69445419 -39.06206131 200 76 58
74.43526459 5.61565399 -38.99257278 200 76 58
74.43498230 5.90377474 -39.32511902 200 76 58
74.43216705 6.26413202 -39.76049042 200 76 58
74.43773651 4.77178001 -38.97812653 200 76 58
74.43356323 4.74519157 -38.85125732 200 76 58
74.43599701 4.81868172 -38.94636917 200 76 58
74.41902924 4.85256338 -38.97980881 200 76 58
74.43862915 5.29498148 -39.54793930 200 76 58
74.43550110 5.37247133 -39.63749695 200 76 58
74.43315887 5.32435846 -39.58713531 200 76 58
74.44037628 5.56842804 -39.87011337 200 76 58
74.43584442 5.39707279 -39.67820740 200 76 58
74.43274689 5.33099699 -39.63024521 200 76 58
74.43437195 5.60116243 -39.90344238 200 76 58
74.43128204 5.54447031 -39.85863495 200 76 58
74.42782593 5.47123909 -39.81325531 200 76 58
74.42844391 5.54223824 -39.90626144 200 76 58
74.42669678 6.39737415 -40.88237000 200 76 58
74.43782806 4.95667601 -39.96552277 200 76 58
74.43289185 5.02361441 -39.95478058 200 76 58
74.41440582 5.54314852 -40.59107208 200 76 58
74.42438507 5.50210047 -40.57820892 200 76 58
74.44420624 5.84247017 -40.93599701 200 76 58
74.42829895 5.72620916 -40.87602997 200 76 58
74.45362091 4.50699520 -39.85706711 200 76 58
74.43730164 4.70953894 -39.97770691 200 76 58
74.43887329 5.15949726 -40.59673691 200 76 58
74.43511963 5.40608549 -40.87950516 200 76 58
74.42686462 5.56461000 -41.02647781 200 76 58
74.43460846 4.52064323 -39.78291321 200 76 58
74.42847443 4.80916786 -39.97950363 200 76 58
74.44084167 5.09580135 -40.61040115 200 76 58
74.43411255 5.42872906 -40.98982620 200 76 58
74.43321991 4.62679577 -40.01601028 200 76 58
74.43458557 4.80597544 -39.98576736 200 76 58
74.42978668 4.96516275 -39.96939087 200 76 58
74.43476105 5.10376644 -39.95810699 200 76 58
74.43387604 5.62786674 -40.90591431 200 76 58
74.43348694 5.75424433 -40.89719009 200 76 58
74.42818451 4.83141422 -38.95799255 200 76 58
74.43615723 5.19737816 -39.79574203 200 76 58
74.44132233 5.27116823 -39.68340683 200 76 58
74.42903137 5.33942032 -39.57036591 200 76 58
74.43045044 5.35857439 -39.97069931 200 76 58
74.43607330 5.42597771 -39.85736465 200 76 58
74.43939972 5.50181007 -39.94564056 200 76 58
74.43220520 5.63325977 -39.91938782 200 76 58
74.43054962 4.96729231 -38.87968445 200 76 58
74.43312836 5.15064955 -38.87263489 200 76 58
74.43412018 5.31659079 -38.86509323 200 76 58
74.43199921 5.29125118 -39.23993301 200 76 58
74.43339539 5.38191414 -39.13498688 200 76 58
74.43089294 5.46893358 -38.85252380 200 76 58
74.43717957 5.45834494 -39.22097778 200 76 58
74.42799377 5.53858328 -38.93581772 200 76 58
74.43099213 5.53449345 -39.50319290 200 76 58
74.42858124 5.68420267 -39.28890228 200 76 58
74.43428040 6.25239992 -39.75998306 200 76 58
74.42716980 6.76691532 -40.59052277 200 76 58
74.43692780 6.30168867 -39.30288315 200 76 58
74.43872070 6.36970901 -39.20494080 200 76 58
74.43618011 6.50281858 -39.19060898 200 76 58
74.42926025 6.57600403 -39.26840591 200 76 58
74.43779755 6.63408184 -39.63237000 200 76 58
74.43806458 6.65228033 -39.34644318 200 76 58
74.43433380 6.71927595 -39.71297836 200 76 58
74.44316101 6.72871447 -39.42481232 200 76 58
74.43191528 6.80679989 -39.79516220 200 76 58
74.42883301 6.80435896 -39.50262070 200 76 58
74.43130493 6.83663368 -39.39931107 200 76 58
74.42925262 6.36274242 -39.27195740 200 76 58
74.42562103 6.43924904 -39.35302353 200 76 58
74.43182373 6.51720047 -39.43458939 200 76 58
74.43360901 6.43555307 -39.37528229 200 76 58
74.43367767 6.51118803 -39.45825577 200 76 58
74.43251801 6.24593592 -39.26839828 200 76 58
74.42990875 6.31693554 -39.35763931 200 76 58
74.43952179 6.66617155 -39.62746811 200 76 58
74.43458557 6.57005119 -39.58042526 200 76 58
74.43247986 6.64682055 -39.66713333 200 76 58
74.43524170 6.53613901 -39.62473679 200 76 58
74.43375397 6.90435123 -39.87801361 200 76 58
74.43135071 6.80223894 -39.84069824 200 76 58
74.43500519 5.15325499 -38.89158630 200 76 58
74.43131256 5.19786501 -38.91584396 200 76 58
74.44126129 5.27059174 -39.00527573 200 76 58
74.44096375 5.22304678 -38.95053864 200 76 58
74.43247223 5.46653509 -39.24309540 200 76 58
74.43067932 5.42231703 -39.18381119 200 76 58
74.43345642 5.49684191 -39.27120590 200 76 58
74.43589783 5.43971539 -39.22043228 200 76 58
74.43588257 5.43564510 -39.26000214 200 76 58
74.43848419 6.68156481 -40.60040283 200 76 58
74.40558624 6.76371813 -40.68404007 200 76 58
74.43666077 5.29634571 -39.86080551 200 76 58
74.42874908 5.37991762 -39.94713974 200 76 58
74.43416595 5.35189199 -39.90161514 200 76 58
74.42506409 5.26300573 -39.82502747 200 76 58
74.43144989 5.33369207 -39.92028046 200 76 58
74.43439484 5.92540598 -40.60890961 200 76 58
74.42930603 4.85134029 -39.93873978 200 76 58
74.43399811 4.93522692 -40.02989960 200 76 58
74.42507172 5.03581810 -39.96439743 200 76 58
74.43280792 5.78708315 -40.94305420 200 76 58
74.43192291 5.73877287 -40.86493301 200 76 58
74.43631744 4.70428228 -40.01678085 200 76 58
74.43410492 4.81925583 -39.85345459 200 76 58
74.43090820 4.93314171 -39.87567520 200 76 58
74.42955780 5.44055080 -40.59618759 200 76 58
74.43075562 5.65041161 -41.02202606 200 76 58
74.43312073 5.67967892 -40.88916016 200 76 58
74.42890167 5.75489044 -40.93514252 200 76 58
74.43687439 4.94252300 -39.91191483 200 76 58
74.43171692 5.21461582 -39.89820862 200 76 58
74.43420410 5.72153854 -40.93623734 200 76 58
74.42165375 6.05469990 -40.93960571 200 76 58
74.43411255 4.85158730 -38.84252167 200 76 58
74.42890930 4.92731428 -38.93320084 200 76 58
74.43817902 5.07230234 -39.10890198 200 76 58
74.43402863 5.24422455 -39.89468384 200 76 58
74.43584442 5.31799364 -39.76845169 200 76 58
74.43477631 5.38349867 -39.65682602 200 76 58
74.44002533 5.45928955 -39.74481201 200 76 58
74.43336487 5.51256514 -39.63427353 200 76 58
74.43530273 5.66006041 -39.81042099 200 76 58
74.43996429 5.01645470 -38.82105637 200 76 58
74.43458557 5.27206612 -38.89101791 200 76 58
74.43452454 5.34914780 -38.97867203 200 76 58
74.43511963 5.42642879 -38.87528610 200 76 58
74.43041992 5.50213385 -38.96133423 200 76 58
74.43257141 5.56892490 -38.85559464 200 76 58
74.43671417 5.64513159 -39.13404083 200 76 58
74.43129730 5.84709549 -39.19306564 200 76 58
74.43514252 6.25460434 -39.80522919 200 76 58
74.42564392 6.59215021 -40.03077316 200 76 58
74.43277740 6.26972580 -38.83431244 200 76 58
74.43921661 6.44123411 -39.17335510 200 76 58
74.43575287 6.52053261 -39.25464630 200 76 58
74.43940735 6.56555605 -39.15381241 200 76 58
74.43135834 6.63638878 -39.52758408 200 76 58
74.43295288 6.68043137 -39.41540146 200 76 58
74.43463135 6.67419195 -39.12833405 200 76 58
74.43649292 6.76214933 -39.49557114 200 76 58
74.43074799 6.74629831 -39.20574570 200 76 58
74.43634033 6.84405708 -39.57630539 200 76 58
74.44007111 6.82169390 -39.28514099 200 76 58
74.44104767 6.89591312 -39.36351395 200 76 58
74.43185425 6.70648146 -39.09195709 200 76 58
74.43626404 6.35741949 -38.83823395 200 76 58
74.43927765 6.77088165 -39.19720459 200 76 58
74.43663025 6.84711123 -39.28022385 200 76 58
74.43414307 6.63963223 -39.19187927 200 76 58
74.43880463 6.90049982 -39.40715408 200 76 58
74.43179321 5.62107134 -38.87577057 200 76 58
74.43258667 5.57590532 -38.84770584 200 76 58
74.43892670 5.71735764 -39.02658463 200 76 58
74.43945313 5.63114119 -38.97675323 200 76 58
74.43868256 6.48136663 -39.80627441 200 76 58
74.44638062 6.47447824 -39.85415268 200 76 58
74.42512512 6.63301516 -40.02582550 200 76 58
74.43811035 4.82457542 -38.83589172 200 76 58
74.42938995 4.89415741 -38.86978149 200 76 58
74.43172455 4.86817408 -38.82069016 200 76 58
74.43732452 5.06956577 -39.10538864 200 76 58
74.43901062 5.04785633 -39.05167770 200 76 58
74.42811584 4.96947908 -38.95852280 200 76 58
74.43360901 5.39265299 -39.45704651 200 76 58
74.43514252 5.47198963 -39.54361725 200 76 58
74.43978119 5.38337755 -39.46047211 200 76 58
74.43537140 5.32060862 -39.42419815 200 76 58
74.43470764 5.53086853 -39.64000320 200 76 58
74.43746948 5.60275793 -39.79391861 200 76 58
74.43945313 5.82914829 -40.00436783 200 76 58
74.43952179 6.38423491 -40.58319092 200 76 58
74.43770599 5.12569380 -39.78507996 200 76 58
74.43662262 5.29133463 -39.96219254 200 76 58
74.44128418 5.28137636 -39.91539383 200 76 58
74.43770599 5.23085976 -39.84164810 200 76 58
74.43761444 5.30327082 -39.93696594 200 76 58
74.43276215 5.87694693 -40.59062576 200 76 58
74.43254852 6.04554796 -40.91679382 200 76 58
74.44287872 4.86310148 -39.72040939 200 76 58
74.43445587 5.02536488 -39.89929962 200 76 58
74.44071198 5.12465620 -39.93198776 200 76 58
74.43556976 5.20277882 -40.02311707 200 76 58
74.43593597 5.66451931 -40.58840942 200 76 58
74.43920898 5.91862345 -40.92570114 200 76 58
74.43469238 4.90256023 -39.85649490 200 76 58
74.43380737 5.18001795 -39.84711838 200 76 58
74.43431091 5.21812916 -39.76599884 200 76 58
74.42754364 5.29306698 -39.85762787 200 76 58
74.42765808 5.80271387 -40.58728409 200 76 58
74.43089294 5.88879728 -40.61605072 200 76 58
74.43276978 6.04466200 -40.88222885 200 76 58
74.43222046 4.81951189 -38.95435715 200 76 58
74.43283081 4.96822596 -38.93975830 200 76 58
74.43647766 5.22934151 -39.80373001 200 76 58
74.43975830 5.29801702 -39.68231964 200 76 58
74.43653870 5.35696316 -39.57586288 200 76 58
74.43091583 5.39664173 -39.97843170 200 76 58
74.43456268 5.43463421 -39.66426468 200 76 58
74.43658447 5.47990704 -39.56211090 200 76 58
74.40779114 5.54277515 -39.94108582 200 76 58
74.43135071 5.62651873 -39.73923111 200 76 58
74.43352509 5.06332064 -38.90523911 200 76 58
74.43885803 5.30791807 -38.96474457 200 76 58
74.44039917 5.37833834 -38.85602570 200 76 58
74.43882751 5.39171410 -39.25998688 200 76 58
74.43074036 5.46477890 -39.13736725 200 76 58
74.43266296 5.51474333 -38.83390045 200 76 58
74.43536377 5.54324865 -39.22390366 200 76 58
74.43324280 5.60396147 -39.11364746 200 76 58
74.43438721 5.67844296 -39.19916916 200 76 58
74.43225861 5.75465155 -39.28420258 200 76 58
74.43551636 5.94545221 -39.34560013 200 76 58
74.42372131 6.86719799 -40.62353134 200 76 58
74.43502045 6.29000139 -39.26311874 200 76 58
74.43606567 6.41925430 -39.23038483 200 76 58
74.43095398 6.49788857 -39.31267166 200 76 58
74.43406677 6.57898140 -39.39552689 200 76 58
74.43360138 6.60936975 -39.28615189 200 76 58
74.43585205 6.71202612 -39.68171692 200 76 58
74.43560791 6.68679380 -39.36748505 200 76 58
74.43206024 6.80004597 -39.76605225 200 76 58
74.43689728 6.76551962 -39.45015717 200 76 58
74.43471527 6.84456682 -39.53060532 200 76 58
74.43264008 6.18546581 -38.85812378 200 76 58
74.43429565 6.49648285 -39.15761948 200 76 58
74.43618774 6.47648382 -39.20782471 200 76 58
74.43595886 6.82344961 -39.44933319 200 76 58
74.43822479 6.55152845 -39.29506683 200 76 58
74.43656158 6.43967581 -39.26441574 200 76 58
74.44268036 6.80699778 -39.49701309 200 76 58
74.43725586 6.70378304 -39.47096634 200 76 58
74.43497467 6.66278315 -39.53608322 200 76 58
74.43180084 6.73913670 -39.62835312 200 76 58
74.43352509 6.89570904 -39.81309509 200 76 58
74.43813324 5.53213215 -38.92104721 200 76 58
74.43186188 5.61181974 -39.00709915 200 76 58
74.43987274 5.56096935 -38.95993423 200 76 58
74.43437958 5.50174093 -38.92006683 200 76 58
74.43802643 5.42653608 -38.88070297 200 76 58
74.43092346 5.49738550 -38.97178268 200 76 58
74.43586731 5.56691742 -39.06253433 200 76 58
74.43315887 5.63689661 -39.15360641 200 76 58
74.44532776 6.40988255 -39.92556000 200 76 58
74.43452454 6.76267338 -40.57518005 200 76 58
74.43392181 4.87486172 -38.83899307 200 76 58
74.43830872 4.95356083 -38.92937851 200 76 58
74.42787933 4.91316748 -38.84345627 200 76 58
74.43081665 4.98443127 -38.93725204 200 76 58
74.43463135 5.45009756 -39.50295639 200 76 58
74.43513489 5.38856220 -39.42897034 200 76 58
74.43009186 5.34120417 -39.39856720 200 76 58
74.43211365 5.48265696 -39.58245087 200 76 58
74.44005585 5.62615299 -39.77007294 200 76 58
74.43269348 5.77064466 -39.95539474 200 76 58
74.43070221 5.08688021 -39.53359985 200 76 58
74.44192505 5.26309633 -39.65253830 200 76 58
74.44501495 5.26509428 -39.60717010 200 76 58
74.43466187 5.41810417 -39.88134003 200 76 58
74.44061279 5.34122753 -39.69714737 200 76 58
74.43936920 5.50112247 -39.97052002 200 76 58
74.43714905 5.41746712 -39.78745651 200 76 58
74.43369293 5.49370575 -39.87776566 200 76 58
74.43665314 5.56993866 -39.97105026 200 76 58
74.43466187 4.77562809 -38.86815262 200 76 58
74.43690491 4.84896183 -38.95932007 200 76 58
74.43623352 5.07303572 -39.47122192 200 76 58
74.43730927 5.31330776 -39.73614120 200 76 58
74.43991852 5.29113865 -39.50813675 200 76 58
74.43415833 5.43850851 -39.99288559 200 76 58
74.43441010 5.42139721 -39.75476074 200 76 58
74.43663788 5.43749619 -39.69152832 200 76 58
74.42807770 5.55445766 -39.99982071 200 76 58
74.43337250 5.58385324 -39.87491989 200 76 58
74.43455505 6.12243605 -40.59254074 200 76 58
74.43311310 4.88144875 -38.94180679 200 76 58
74.44440460 5.02744102 -38.92853165 200 76 58
74.44075775 5.08543539 -38.83078384 200 76 58
74.43754578 5.15954590 -38.92002869 200 76 58
74.43753052 5.30786705 -39.09843445 200 76 58
74.44379425 5.36305475 -39.46780396 200 76 58
74.43934631 5.46914816 -39.75294495 200 76 58
74.43980408 5.49127388 -39.45846176 200 76 58
74.43885803 5.63611984 -39.92667007 200 76 58
74.43784332 5.19160843 -38.85903168 200 76 58
74.44164276 5.34673500 -38.82378769 200 76 58
74.43676758 5.42711353 -38.91061020 200 76 58
74.43630219 5.52324629 -39.20636368 200 76 58
74.43778992 5.60588312 -39.29248810 200 76 58
74.44045258 5.66424227 -39.16862488 200 76 58
74.43516541 5.71540308 -39.05799484 200 76 58
74.43843079 6.38966322 -39.94237518 200 76 58
74.44210815 6.57516241 -40.01249695 200 76 58
74.43944550 6.90245867 -40.61098862 200 76 58
74.43257141 6.43067503 -39.28366089 200 76 58
74.43816376 6.51385307 -39.36802673 200 76 58
74.43771362 6.54763174 -39.24436188 200 76 58
74.43276215 6.57539415 -39.13293076 200 76 58
74.43721008 6.68581772 -39.53625107 200 76 58
74.43826294 6.71129036 -39.41093445 200 76 58
74.43196106 6.66972780 -39.10634613 200 76 58
74.43587494 6.79349899 -39.49412155 200 76 58
74.44591522 6.81176043 -39.38237762 200 76 58
74.43946838 6.89822769 -39.35631180 200 76 58
74.43920135 6.23747063 -38.86233521 200 76 58
74.43461609 6.55387878 -39.19674683 200 76 58
74.43943024 6.63451338 -39.27985382 200 76 58
74.43831635 6.62476063 -39.33735275 200 76 58
74.44040680 6.70419455 -39.42330933 200 76 58
74.43920898 6.41793728 -39.30069733 200 76 58
74.44318390 6.78439188 -39.51023865 200 76 58
74.43547821 6.86460495 -39.59731674 200 76 58
74.43820190 6.84082747 -39.67748260 200 76 58
74.44073486 6.80024958 -39.76581192 200 76 58
74.43847656 5.61419058 -38.94171524 200 76 58
74.44390869 5.52668285 -38.86870575 200 76 58
74.44035339 5.46531916 -38.84017181 200 76 58
74.44168091 5.53729677 -38.92966080 200 76 58
74.43851471 5.80741119 -39.16185760 200 76 58
74.44087219 6.42777777 -39.79639053 200 76 58
74.42604828 6.89382696 -40.64107895 200 76 58
74.44082642 5.09762287 -38.91680145 200 76 58
74.45019531 5.10402107 -38.81634140 200 76 58
74.43762970 5.34866095 -39.17275620 200 76 58
74.44164276 5.25991440 -38.99540710 200 76 58
74.43946838 5.23984718 -38.95805740 200 76 58
74.44149017 5.31246281 -39.04989243 200 76 58
74.43551636 6.69356346 -40.57941818 200 76 58
74.43796539 4.86987114 -38.90012360 200 76 58
74.44239807 5.00289345 -38.90866089 200 76 58
74.43940735 5.13778734 -38.86929321 200 76 58
74.43906403 5.28594828 -39.05118561 200 76 58
74.44551086 5.46089125 -39.49965668 200 76 58
74.43822479 5.43194580 -39.23204803 200 76 58
74.43205261 5.57865095 -39.41307831 200 76 58
74.43959808 4.92760134 -38.82436371 200 76 58
74.44564819 5.09829283 -38.99779892 200 76 58
74.44216156 5.26856852 -39.16809082 200 76 58
74.43715668 5.35259771 -39.25233459 200 76 58
74.43807983 5.40588427 -39.15146255 200 76 58
74.43766785 5.44980574 -39.06413269 200 76 58
74.43939972 5.51936388 -39.42231369 200 76 58
74.44086456 5.52690411 -39.15206909 200 76 58
74.44007874 5.63075924 -39.15847015 200 76 58
74.43612671 6.22479105 -39.88274002 200 76 58
74.42739868 6.79430389 -40.61347580 200 76 58
74.43869781 5.53935480 -38.96533966 200 76 58
74.43927002 5.62190104 -39.05006790 200 76 58
74.43759155 5.72500515 -38.82402802 200 76 58
74.43538666 6.31929493 -39.61326981 200 76 58
74.44158936 6.50151634 -39.68959808 200 76 58
74.43655396 6.58175087 -39.77714157 200 76 58
74.43495178 6.66584730 -39.77595901 200 76 58
74.43470764 6.31259394 -38.83400726 200 76 58
74.43546295 6.69252729 -39.37751389 200 76 58
74.43914795 6.77969933 -39.46181870 200 76 58
74.44328308 6.86827946 -39.54780579 200 76 58
74.44315338 6.88427925 -39.42058182 200 76 58
74.44236755 6.90155458 -39.20423889 200 76 58
74.43431091 6.54881573 -38.85781479 200 76 58
74.43630981 6.77441072 -39.13261795 200 76 58
74.43640137 6.36679602 -39.18898010 200 76 58
74.43580627 6.45298529 -39.33818817 200 76 58
74.43852997 6.20123577 -39.23024368 200 76 58
74.43534851 6.44718122 -39.41829300 200 76 58
74.44026184 6.77457809 -39.69273758 200 76 58
74.43176270 6.57399464 -39.69482803 200 76 58
74.43646240 6.65089321 -39.79106140 200 76 58
74.43460846 5.50095034 -38.83795166 200 76 58
74.44271088 5.56680679 -38.88188171 200 76 58
74.44610596 5.54046297 -38.84868240 200 76 58
74.44335175 5.61674643 -38.93764877 200 76 58
74.43670654 5.57649183 -38.91236496 200 76 58
74.43621826 5.64870739 -39.00286865 200 76 58
74.43582153 6.49044371 -39.86126709 200 76 58
74.43210602 6.37775993 -39.83514404 200 76 58
74.44281769 6.60173416 -40.02737427 200 76 58
74.44876862 5.23566008 -38.84255219 200 76 58
74.43989563 5.34633970 -38.86094666 200 76 58
74.44095612 5.36152458 -38.80680466 200 76 58
74.44287872 5.43778658 -38.89435959 200 76 58
74.44359589 5.43831635 -38.84622574 200 76 58
74.43694305 5.51254416 -38.93714523 200 76 58
74.44289398 5.66780806 -39.15969849 200 76 58
74.43920898 5.73182392 -39.20853424 200 76 58
74.44480896 6.89659023 -40.56906509 200 76 58
74.44193268 5.42347574 -38.97104645 200 76 58
74.43672943 5.50831175 -39.05431747 200 76 58
74.43659973 5.59234715 -39.13840866 200 76 58
74.44047546 5.63060951 -39.04695892 200 76 58
74.43619537 6.35461855 -39.82590485 200 76 58
74.43737030 6.42658949 -39.80482864 200 76 58
74.43974304 5.66540718 -38.81551361 200 76 58
74.43737030 6.16525507 -39.31879044 200 76 58
74.44210815 6.19897747 -39.20701218 200 76 58
74.43820190 6.50432348 -39.65803528 200 76 58
74.44068146 6.59071493 -39.74479294 200 76 58
74.43916321 6.53789806 -39.45923615 200 76 58
74.43518829 6.54401302 -39.37480927 200 76 58
74.43739319 6.69951725 -39.63794708 200 76 58
74.43623352 6.69736385 -39.55481720 200 76 58
74.43578339 6.77672768 -39.64557648 200 76 58
74.43998718 6.85658360 -39.73860168 200 76 58
74.43727112 6.72076416 -39.19233704 200 76 58
74.43857574 6.89405251 -39.36138916 200 76 58
74.44345856 6.90981579 -39.23678970 200 76 58
74.44425964 6.80249977 -39.15532303 200 76 58
74.43042755 6.88335657 -39.23763657 200 76 58
74.44268036 6.50499821 -39.13991928 200 76 58
74.44169617 6.87329483 -39.31607437 200 76 58
74.44271851 6.65914726 -39.32461548 200 76 58
74.43543243 6.73542070 -39.41530609 200 76 58
74.43190002 5.81541348 -38.86125183 200 76 58
74.44026947 6.30199146 -39.25480270 200 76 58
74.44046021 6.46980381 -39.42300415 200 76 58
74.43416595 6.72274637 -39.67815018 200 76 58
74.44114685 6.81151438 -39.76763916 200 76 58
74.43762207 6.89772511 -39.85429382 200 76 58
74.43762207 6.65789509 -39.76585007 200 76 58
74.44165039 6.74038363 -39.86031723 200 76 58
74.44089508 5.58129644 -38.87603760 200 76 58
74.44240570 5.66620779 -38.95812607 200 76 58
74.43742371 5.63608885 -38.83657074 200 76 58
74.43590546 6.51136589 -39.79405594 200 76 58
74.43991089 6.51807451 -39.84607315 200 76 58
74.43019867 6.67974949 -40.03109360 200 76 58
74.43939209 5.56049013 -38.87875748 200 76 58
74.44106293 6.08482933 -39.24511719 200 76 58
74.44055176 6.32401228 -39.62295914 200 76 58
74.43041229 6.48042154 -39.68548965 200 76 58
74.43737030 6.64347315 -39.87016296 200 76 58
74.43828583 6.61800051 -39.83596420 200 76 58
