100.826081 0.774309 -34.157626 74 98 122
100.822037 0.776230 -34.147372 74 98 122
100.825292 0.824510 -37.152018 74 98 122
100.824850 0.824040 -37.139814 74 98 122
100.820886 0.828877 -36.313232 77 139 122
100.822577 0.828952 -36.271615 77 139 122
100.824903 0.819936 -36.242455 77 139 122
100.821803 0.827974 -35.315431 77 139 122
100.824232 0.827695 -35.280967 77 139 122
100.824080 0.825189 -34.157095 74 98 122
100.824962 0.823749 -34.147497 74 98 122
100.830519 0.874892 -37.152509 74 98 122
100.823491 0.876542 -37.139384 74 98 122
100.828522 0.883013 -36.316547 77 139 122
100.822058 0.878796 -36.271559 77 139 122
100.812632 0.870772 -36.246311 77 139 122
100.819997 0.873213 -35.307799 77 139 122
100.824463 0.877787 -35.275707 77 139 122
100.825693 0.875877 -34.156856 74 98 122
100.823205 0.878727 -34.147163 74 98 122
100.825952 0.930308 -37.153016 74 98 122
100.825377 0.923552 -37.140030 74 98 122
100.828667 0.934866 -36.315525 77 139 122
100.819926 0.929900 -36.280271 80 142 133
100.826214 0.947103 -36.229260 90 154 174
100.830124 0.948103 -36.173421 90 154 174
100.823744 0.947948 -36.124272 90 154 174
100.827744 0.947484 -36.073548 90 154 174
100.828401 0.946941 -36.021250 90 154 174
100.829651 0.947428 -35.975000 90 154 174
100.828849 0.947251 -35.924962 90 154 174
100.825962 0.947602 -35.874291 90 154 174
100.829329 0.947741 -35.826809 90 154 174
100.825016 0.948564 -35.769954 90 154 174
100.827361 0.948099 -35.723570 90 154 174
100.827900 0.947940 -35.675918 90 154 174
100.823471 0.947641 -35.625824 90 154 174
100.824481 0.948274 -35.577457 90 154 174
100.825741 0.948466 -35.523589 90 154 174
100.829043 0.948386 -35.475787 90 154 174
100.824128 0.948571 -35.423789 90 154 174
100.825556 0.946374 -35.368104 90 154 174
100.823842 0.933093 -35.327530 84 147 150
100.825066 0.926628 -35.273592 77 139 122
100.834234 0.929310 -35.246255 77 139 122
100.824194 0.926071 -34.156751 74 98 122
100.826281 0.926928 -34.147315 74 98 122
100.817378 0.976944 -37.154212 74 98 122
100.824142 0.976291 -37.138779 74 98 122
100.833080 0.997048 -36.363562 77 139 122
100.826316 0.976440 -36.322165 77 139 122
100.814945 0.968129 -36.287981 79 141 130
100.824946 0.959667 -36.221673 90 154 174
100.825079 0.959579 -36.174255 90 154 174
100.825148 0.959860 -36.124134 90 154 174
100.825064 0.959969 -36.075393 90 154 174
100.824294 0.960114 -36.024548 90 154 174
100.824255 0.960185 -35.975041 90 154 174
100.824932 0.958657 -35.924609 90 154 174
100.824891 0.957904 -35.874966 90 154 174
100.824347 0.957899 -35.824530 90 154 174
100.824572 0.958284 -35.774964 90 154 174
100.824516 0.958817 -35.725109 90 154 174
100.824603 0.959271 -35.675543 90 154 174
100.824394 0.958976 -35.624982 90 154 174
100.824089 0.958386 -35.574952 90 154 174
100.824117 0.958630 -35.525657 90 154 174
100.825632 0.958582 -35.474778 90 154 174
100.824272 0.958656 -35.425001 90 154 174
100.825017 0.958548 -35.375846 90 154 174
100.830570 0.958511 -35.343976 89 153 172
100.824389 0.975164 -35.267741 77 139 122
100.833101 0.989254 -35.240331 77 139 122
100.825596 0.975452 -34.156436 74 98 122
100.827034 0.976597 -34.146830 74 98 122
100.818895 1.027334 -37.153823 74 98 122
100.825932 1.025412 -37.138642 74 98 122
100.827454 1.015184 -36.362894 77 139 122
100.821164 1.009334 -36.337578 77 139 122
100.800766 1.003014 -36.297806 77 139 122
100.817651 1.010363 -35.260222 77 139 122
100.826601 1.016157 -35.229966 77 139 122
100.848200 1.019788 -35.197882 77 139 122
100.826580 1.024512 -34.155857 74 98 122
100.823941 1.025936 -34.146863 74 98 122
100.813368 1.076070 -37.154002 74 98 122
100.826558 1.075825 -37.138733 74 98 122
100.823652 1.075490 -34.155812 74 98 122
100.826886 1.077595 -34.146607 74 98 122
100.816268 1.122436 -37.154580 74 98 122
100.825953 1.125820 -37.137963 74 98 122
100.826264 1.124702 -34.154788 74 98 122
100.822877 1.124128 -34.146504 74 98 122
100.818009 1.174280 -37.153340 74 98 122
100.824950 1.174712 -37.138314 74 98 122
100.824510 1.173239 -34.155579 74 98 122
100.824727 1.177397 -34.146109 74 98 122
100.823045 1.223570 -37.153601 74 98 122
100.825112 1.225122 -37.138282 74 98 122
100.826128 1.224560 -34.154892 74 98 122
100.825289 1.225854 -34.146221 74 98 122
100.820815 1.277237 -37.153050 74 98 122
100.825505 1.275687 -37.136709 74 98 122
100.824362 1.274676 -34.154980 74 98 122
100.824144 1.277179 -34.145794 74 98 122
100.824078 1.326148 -37.153694 74 98 122
100.824918 1.325925 -37.137919 74 98 122
100.825422 1.325571 -34.154719 74 98 122
100.824370 1.324503 -34.146029 74 98 122
100.822139 1.375034 -37.153478 74 98 122
100.825453 1.375757 -37.138028 74 98 122
100.839752 1.396905 -34.200710 63 122 92
100.825381 1.377996 -34.166697 69 109 108
100.825853 1.361763 -34.145886 74 98 122
100.825342 1.424361 -37.153296 74 98 122
100.824663 1.424905 -37.138415 74 98 122
100.825573 1.420579 -34.204773 63 122 92
100.823887 1.424689 -34.182880 63 122 92
100.824611 1.473470 -37.153420 74 98 122
100.825436 1.475606 -37.138340 74 98 122
100.827301 1.475027 -34.206051 63 122 92
100.825203 1.477487 -34.182241 63 122 92
100.826523 1.525446 -37.153782 74 98 122
100.824770 1.524836 -37.138294 74 98 122
100.821237 1.531846 -34.203596 63 122 92
100.824969 1.526228 -34.182313 63 122 92
100.825517 1.576400 -37.153879 74 98 122
100.824219 1.575172 -37.137872 74 98 122
100.822956 1.576040 -34.202560 63 122 92
100.825102 1.574393 -34.182309 63 122 92
100.826404 1.622826 -37.154064 74 98 122
100.825388 1.624938 -37.137805 74 98 122
100.841156 1.633225 -34.204210 63 122 92
100.825232 1.624818 -34.182059 63 122 92
100.827007 1.676891 -37.153505 74 98 122
100.824835 1.675773 -37.138670 74 98 122
100.830692 1.679732 -34.203236 63 122 92
100.824373 1.674893 -34.182097 63 122 92
100.824578 1.724315 -37.153482 74 98 122
100.825412 1.725320 -37.139006 74 98 122
100.815873 1.712725 -34.201629 63 122 92
100.825742 1.724584 -34.182106 63 122 92
100.822661 1.777419 -37.153700 74 98 122
100.825025 1.775448 -37.138941 74 98 122
100.829967 1.773595 -34.204274 63 122 92
100.825207 1.774708 -34.182064 63 122 92
100.824105 1.827246 -37.154012 74 98 122
100.824577 1.824792 -37.138827 74 98 122
100.825662 1.824544 -34.202088 63 122 92
100.825260 1.826822 -34.181391 63 122 92
100.820722 1.874324 -37.153875 74 98 122
100.825141 1.874964 -37.138122 74 98 122
100.827508 1.875725 -34.202278 63 122 92
100.825073 1.875401 -34.180551 63 122 92
100.821371 1.924306 -37.153215 74 98 122
100.824823 1.925541 -37.139625 74 98 122
100.831696 1.925813 -34.200682 63 122 92
100.824731 1.924627 -34.179748 63 122 92
100.820600 1.974748 -37.153480 74 98 122
100.824832 1.975199 -37.139236 74 98 122
100.826540 1.966059 -34.201775 63 122 92
100.825299 1.974709 -34.180591 63 122 92
100.824211 2.024380 -37.153949 74 98 122
100.824883 2.025290 -37.139436 74 98 122
100.818850 2.031780 -34.203441 63 122 92
100.825464 2.025091 -34.179965 63 122 92
100.825350 2.073395 -37.152853 74 98 122
100.823650 2.075231 -37.139199 74 98 122
100.826065 2.073900 -34.206184 63 122 92
100.824657 2.075280 -34.180148 63 122 92
100.820053 2.124346 -37.152543 74 98 122
100.824343 2.124466 -37.138787 74 98 122
100.819450 2.124771 -34.204447 63 122 92
100.825361 2.125087 -34.180085 63 122 92
100.825244 2.172588 -37.151819 74 98 122
100.824109 2.174840 -37.139539 74 98 122
100.822709 2.172488 -34.201734 63 122 92
100.825020 2.175162 -34.179899 63 122 92
100.823535 2.227037 -37.153017 74 98 122
100.823585 2.224234 -37.139350 74 98 122
100.819211 2.228908 -34.202671 63 122 92
100.824552 2.224330 -34.179821 63 122 92
100.820563 2.276088 -37.151920 74 98 122
100.824226 2.274596 -37.139103 74 98 122
100.831000 2.272333 -34.201681 63 122 92
100.825667 2.273636 -34.179872 63 122 92
100.810631 2.299893 -34.145111 74 98 122
100.822247 2.326345 -37.152329 74 98 122
100.825505 2.325535 -37.138658 74 98 122
100.824599 2.324084 -34.159510 72 103 116
100.825765 2.335213 -34.144539 74 98 122
100.820951 2.376492 -37.152331 74 98 122
100.825287 2.374799 -37.138724 74 98 122
100.825036 2.375170 -34.154401 74 98 122
100.825825 2.374657 -34.144006 74 98 122
100.820930 2.423716 -37.152206 74 98 122
100.824330 2.424119 -37.137533 74 98 122
100.824941 2.425083 -34.154160 74 98 122
100.824681 2.425080 -34.144725 74 98 122
100.825569 2.476106 -37.152943 74 98 122
100.824429 2.475261 -37.138960 74 98 122
100.824359 2.474891 -34.154005 74 98 122
100.825187 2.474968 -34.144546 74 98 122
100.824510 2.525058 -37.153991 74 98 122
100.824882 2.524972 -37.139441 74 98 122
100.824227 2.526319 -34.153846 74 98 122
100.824668 2.524385 -34.144199 74 98 122
100.820283 2.575042 -37.154015 74 98 122
100.824947 2.574562 -37.139303 74 98 122
100.825235 2.574857 -34.154337 74 98 122
100.825540 2.574877 -34.143748 74 98 122
100.821065 2.624711 -37.153620 74 98 122
100.825482 2.623609 -37.138883 74 98 122
100.825709 2.624686 -34.154211 74 98 122
100.824742 2.626122 -34.144056 74 98 122
100.821552 2.677276 -37.153717 74 98 122
100.825465 2.675453 -37.139123 74 98 122
100.825075 2.673615 -34.154080 74 98 122
100.825369 2.674644 -34.143838 74 98 122
100.825980 2.723496 -37.153621 74 98 122
100.824746 2.724674 -37.139207 74 98 122
100.823985 2.725018 -34.154200 74 98 122
100.825507 2.726048 -34.143761 74 98 122
100.822236 2.775814 -37.154056 74 98 122
100.825751 2.773194 -37.139781 74 98 122
100.824587 2.775548 -34.154453 74 98 122
100.825230 2.775010 -34.143922 74 98 122
100.820532 2.825683 -37.153610 74 98 122
100.825521 2.824604 -37.139458 74 98 122
100.825205 2.824579 -34.154355 74 98 122
100.825178 2.824185 -34.143670 74 98 122
100.823582 2.874298 -37.154286 74 98 122
100.825575 2.876024 -37.140167 74 98 122
100.824850 2.876217 -34.154639 74 98 122
100.824630 2.874513 -34.143912 74 98 122
100.824568 2.926320 -37.154771 74 98 122
100.824836 2.924461 -37.140419 74 98 122
100.825821 2.924944 -34.154464 74 98 122
100.824086 2.925064 -34.144046 74 98 122
100.822276 2.976509 -37.154576 74 98 122
100.826761 2.976022 -37.141189 74 98 122
100.825621 2.974753 -34.154547 74 98 122
100.824848 2.974897 -34.143772 74 98 122
100.821354 3.026229 -37.155311 74 98 122
100.825407 3.021618 -37.140725 74 98 122
100.825148 3.024901 -34.154550 74 98 122
100.825576 3.025905 -34.144098 74 98 122
100.823648 3.068227 -37.154663 89 98 132
100.824594 3.081331 -37.131146 110 98 146
100.824125 3.089830 -37.074178 122 98 154
100.826259 3.088994 -37.024444 122 98 154
100.825474 3.089173 -36.974363 122 98 154
100.824987 3.089475 -36.923639 122 98 154
100.824791 3.093132 -36.893712 122 98 154
100.825094 3.074812 -34.154501 74 98 122
100.824836 3.074489 -34.143742 74 98 122
100.824482 3.105996 -37.157085 122 98 154
100.822026 3.104610 -37.121032 122 98 154
100.816697 3.104047 -37.076576 122 98 154
100.823926 3.104277 -37.026044 122 98 154
100.823123 3.105708 -36.973600 122 98 154
100.822781 3.106100 -36.913643 122 98 154
100.824863 3.124326 -36.888726 122 98 154
100.825178 3.125588 -34.154585 74 98 122
100.825522 3.124892 -34.143860 74 98 122
100.814741 3.167907 -36.902643 122 98 154
100.825045 3.175314 -36.883759 122 98 154
100.825332 3.174699 -34.154488 74 98 122
100.825505 3.174176 -34.143922 74 98 122
100.827362 3.231095 -36.904341 122 98 154
100.826003 3.224041 -36.880896 122 98 154
100.825031 3.224721 -34.154594 74 98 122
100.824954 3.223853 -34.143066 74 98 122
100.824040 3.275097 -36.878060 122 98 154
100.810905 3.290024 -36.848061 122 98 154
100.827171 3.273850 -34.155180 74 98 122
100.824795 3.275817 -34.142780 74 98 122
100.848267 3.304858 -36.904816 122 98 154
100.825617 3.324744 -36.875260 122 98 154
100.825387 3.324024 -34.155242 74 98 122
100.823991 3.324311 -34.142375 74 98 122
100.825865 3.374986 -36.871697 122 98 154
100.834780 3.389231 -36.844949 122 98 154
100.825924 3.373640 -34.155718 74 98 122
100.824561 3.373817 -34.142191 74 98 122
100.825182 3.424801 -36.865349 122 98 154
100.824816 3.438768 -36.823581 150 141 181
100.825110 3.439357 -36.775532 197 213 226
100.826212 3.439659 -36.724847 197 213 226
100.825315 3.439363 -36.675011 197 213 226
100.824820 3.439493 -36.625581 197 213 226
100.824266 3.439438 -36.575236 197 213 226
100.825945 3.439697 -36.524278 197 213 226
100.825675 3.439757 -36.474781 197 213 226
100.825508 3.438894 -36.424963 197 213 226
100.825605 3.439332 -36.374916 197 213 226
100.825633 3.439527 -36.324901 197 213 226
100.826033 3.439582 -36.274891 197 213 226
100.825039 3.439370 -36.226282 197 213 226
100.825226 3.439675 -36.174870 197 213 226
100.824976 3.440242 -36.124450 197 213 226
100.825770 3.440081 -36.074487 197 213 226
100.825825 3.439562 -36.024802 197 213 226
100.825431 3.440162 -35.974922 197 213 226
100.825449 3.439915 -35.925197 197 213 226
100.825752 3.439917 -35.875234 197 213 226
100.825559 3.439735 -35.824610 197 213 226
100.825913 3.439277 -35.774520 197 213 226
100.826598 3.439445 -35.725161 197 213 226
100.825499 3.439699 -35.675139 197 213 226
100.825487 3.439243 -35.624017 197 213 226
100.825322 3.438673 -35.574785 197 213 226
100.825291 3.438620 -35.524992 197 213 226
100.824927 3.438182 -35.474096 197 213 226
100.825710 3.438030 -35.424252 197 213 226
100.824943 3.438576 -35.374950 197 213 226
100.824599 3.439613 -35.323696 197 213 226
100.826311 3.438927 -35.275507 197 213 226
100.824770 3.438780 -35.224857 197 213 226
100.824892 3.440038 -35.175163 197 213 226
100.826386 3.439653 -35.125333 197 213 226
100.825394 3.439959 -35.074597 197 213 226
100.825143 3.440084 -35.025863 197 213 226
100.825014 3.439984 -34.975593 197 213 226
100.825086 3.440029 -34.924110 197 213 226
100.825945 3.439162 -34.875155 197 213 226
100.825746 3.439512 -34.825031 197 213 226
100.825248 3.438983 -34.775193 197 213 226
100.824880 3.438953 -34.724940 197 213 226
100.826117 3.437814 -34.675946 197 213 226
100.825708 3.437903 -34.625311 197 213 226
100.825219 3.437831 -34.574335 197 213 226
100.825585 3.437665 -34.525084 197 213 226
100.826599 3.437438 -34.474480 197 213 226
100.825030 3.437924 -34.424778 197 213 226
100.825385 3.437715 -34.375004 197 213 226
100.825113 3.437630 -34.325518 197 213 226
100.824942 3.437721 -34.274941 197 213 226
100.825189 3.437992 -34.225084 197 213 226
100.825990 3.434416 -34.172443 187 204 218
100.825468 3.422484 -34.142989 152 171 188
100.822462 3.457985 -36.861888 122 98 154
100.823684 3.455770 -36.828176 141 127 172
100.821792 3.455023 -36.773686 197 213 226
100.820822 3.454818 -36.726359 197 213 226
100.820276 3.454934 -36.675191 197 213 226
100.822495 3.455546 -36.623442 197 213 226
100.822431 3.454941 -36.574013 197 213 226
100.821276 3.455302 -36.527811 197 213 226
100.820509 3.454611 -36.475017 197 213 226
100.823421 3.454922 -36.424749 197 213 226
100.820016 3.454210 -36.373182 197 213 226
100.821637 3.453843 -36.325095 197 213 226
100.820147 3.454588 -36.273402 197 213 226
100.819708 3.454653 -36.223841 197 213 226
100.820044 3.454489 -36.173303 197 213 226
100.819984 3.454934 -36.124305 197 213 226
100.820291 3.454856 -36.074192 197 213 226
100.821734 3.455337 -36.026924 197 213 226
100.822030 3.455698 -35.975519 197 213 226
100.820914 3.455167 -35.924890 197 213 226
100.819662 3.455387 -35.877083 197 213 226
100.821120 3.454878 -35.827147 197 213 226
100.820787 3.455043 -35.775209 197 213 226
100.818644 3.454671 -35.725494 197 213 226
100.820591 3.454531 -35.674735 197 213 226
100.819273 3.454656 -35.626694 197 213 226
100.820320 3.454782 -35.574864 197 213 226
100.822121 3.455041 -35.524986 197 213 226
100.821870 3.455331 -35.475344 197 213 226
100.822670 3.454763 -35.424367 197 213 226
100.822093 3.456200 -35.370982 197 213 226
100.822802 3.454564 -35.324826 197 213 226
100.821952 3.454241 -35.276060 197 213 226
100.821586 3.454423 -35.223973 197 213 226
100.822111 3.454141 -35.174477 197 213 226
100.821517 3.454174 -35.126468 197 213 226
100.820406 3.454534 -35.075364 197 213 226
100.822222 3.454220 -35.026377 197 213 226
100.821496 3.454257 -34.975429 197 213 226
100.821619 3.454425 -34.925338 197 213 226
100.822689 3.454349 -34.874402 197 213 226
100.820373 3.454854 -34.827735 197 213 226
100.822070 3.454656 -34.774308 197 213 226
100.822086 3.455006 -34.725923 197 213 226
100.822857 3.454399 -34.675116 197 213 226
100.821660 3.454453 -34.625376 197 213 226
100.819779 3.454318 -34.575540 197 213 226
100.820233 3.454928 -34.524956 197 213 226
100.820815 3.455167 -34.475312 197 213 226
100.821539 3.455156 -34.426493 197 213 226
100.816738 3.455496 -34.375510 197 213 226
100.820824 3.455571 -34.324272 197 213 226
100.821839 3.455498 -34.274937 197 213 226
100.819595 3.455015 -34.225185 197 213 226
100.821349 3.455754 -34.176419 197 213 226
100.818081 3.455491 -34.145248 197 213 226
100.866295 0.194600 -37.120377 196 168 116
100.873369 0.195606 -37.071249 196 168 116
100.871204 0.191921 -37.022747 196 168 116
100.876086 0.195193 -36.976991 196 168 116
100.872452 0.193773 -36.927014 196 168 116
100.869994 0.194602 -36.881101 196 168 116
100.870844 0.196811 -36.825526 196 168 116
100.879546 0.196146 -36.775356 196 168 116
100.872880 0.193464 -36.726816 196 168 116
100.881300 0.194552 -36.676741 196 168 116
100.878501 0.194825 -36.627227 196 168 116
100.870773 0.196431 -36.575309 196 168 116
100.876982 0.195376 -36.522923 196 168 116
100.873136 0.195261 -36.475319 196 168 116
100.870401 0.193897 -36.428271 196 168 116
100.878421 0.194083 -36.373654 196 168 116
100.875364 0.193383 -36.327613 196 168 116
100.869867 0.194842 -36.273375 196 168 116
100.871479 0.196319 -36.225205 196 168 116
100.875106 0.195877 -36.173313 196 168 116
100.872827 0.195075 -36.129545 196 168 116
100.869146 0.193770 -36.079767 196 168 116
100.873847 0.194397 -36.026721 196 168 116
100.885917 0.194511 -35.973798 196 168 116
100.865849 0.194064 -35.922285 196 168 116
100.865547 0.193565 -35.873926 196 168 116
100.877234 0.193848 -35.824690 196 168 116
100.863947 0.198725 -35.789979 196 168 116
100.875337 0.195285 -35.731443 196 168 116
100.873705 0.190265 -35.675042 196 168 116
100.857414 0.198301 -35.630161 196 168 116
100.887646 0.195925 -35.577052 196 168 116
100.878660 0.198755 -35.515564 196 168 116
100.879375 0.193679 -35.476909 196 168 116
100.869385 0.191069 -35.426204 196 168 116
100.869022 0.192118 -35.376375 196 168 116
100.872917 0.196556 -35.314469 196 168 116
100.878295 0.195203 -35.279814 196 168 116
100.869115 0.194163 -35.222404 196 168 116
100.875200 0.195449 -35.177064 196 168 116
100.874148 0.192495 -35.121087 196 168 116
100.879708 0.196104 -35.077104 196 168 116
100.877777 0.195619 -35.026552 196 168 116
100.873722 0.197163 -34.978285 196 168 116
100.877368 0.197316 -34.919888 196 168 116
100.873189 0.198117 -34.881328 196 168 116
100.874829 0.197867 -34.830090 196 168 116
100.876739 0.198544 -34.776985 196 168 116
100.881392 0.198058 -34.735591 196 168 116
100.874454 0.198135 -34.680523 196 168 116
100.881604 0.198371 -34.621084 196 168 116
100.873422 0.198381 -34.575887 196 168 116
100.873414 0.198333 -34.519227 196 168 116
100.870758 0.197159 -34.482872 196 168 116
100.872754 0.197389 -34.421089 196 168 116
100.875292 0.198820 -34.383499 196 168 116
100.876100 0.198043 -34.323215 196 168 116
100.872073 0.198415 -34.271462 196 168 116
100.873882 0.198111 -34.223184 196 168 116
100.872288 0.198037 -34.179318 196 168 116
100.877220 0.223769 -37.155705 142 137 119
100.872672 0.214278 -37.130801 177 157 117
100.873600 0.207538 -37.076030 196 168 116
100.875981 0.206744 -37.027058 196 168 116
100.874425 0.207226 -36.977016 196 168 116
100.878151 0.206770 -36.924578 196 168 116
100.876212 0.207305 -36.875116 196 168 116
100.874757 0.207583 -36.825497 196 168 116
100.873962 0.206981 -36.776009 196 168 116
100.874857 0.206378 -36.723400 196 168 116
100.875784 0.206389 -36.675460 196 168 116
100.874792 0.207014 -36.624443 196 168 116
100.875242 0.206710 -36.576343 196 168 116
100.874984 0.206092 -36.526669 196 168 116
100.874463 0.206098 -36.474691 196 168 116
100.874395 0.206620 -36.424155 196 168 116
100.874389 0.207119 -36.375365 195 168 116
100.876893 0.208665 -36.325018 192 167 116
100.874661 0.210460 -36.275423 188 166 116
100.871769 0.207209 -36.222161 193 167 116
100.871729 0.209147 -36.174607 186 166 116
100.871662 0.208208 -36.124696 194 167 116
100.874398 0.210433 -36.075396 191 167 116
100.873129 0.209273 -36.024389 191 167 116
100.879182 0.207618 -35.976741 196 168 116
100.875398 0.208107 -35.922519 196 168 116
100.869988 0.213502 -35.872654 196 168 116
100.875142 0.208479 -35.825542 196 168 116
100.873317 0.207433 -35.779794 196 168 116
100.871136 0.208359 -35.726396 196 168 116
100.880346 0.205549 -35.680254 196 168 116
100.870592 0.206526 -35.626802 196 168 116
100.874817 0.206789 -35.574044 196 168 116
100.876272 0.206365 -35.524772 196 168 116
100.874129 0.206034 -35.475525 196 168 116
100.875743 0.208370 -35.426470 196 168 116
100.878858 0.210207 -35.376018 188 166 116
100.875822 0.207794 -35.324147 192 167 116
100.874473 0.206651 -35.274669 196 168 116
100.875429 0.206963 -35.227430 196 168 116
100.874405 0.207292 -35.172051 196 168 116
100.873963 0.207027 -35.125030 196 168 116
100.875941 0.206666 -35.074549 196 168 116
100.874915 0.206820 -35.024199 196 168 116
100.874502 0.206651 -34.973526 196 168 116
100.875295 0.206946 -34.927046 196 168 116
100.878789 0.206144 -34.874471 196 168 116
100.876063 0.207021 -34.826185 196 168 116
100.875169 0.205873 -34.773808 196 168 116
100.874663 0.206127 -34.723519 196 168 116
100.877121 0.206120 -34.675460 196 168 116
100.875750 0.207138 -34.625847 196 168 116
100.873837 0.207031 -34.573889 196 168 116
100.876667 0.206978 -34.524502 196 168 116
100.876748 0.208663 -34.473872 196 168 116
100.876243 0.208731 -34.423877 196 168 116
100.875478 0.208036 -34.376726 196 168 116
100.873783 0.208010 -34.326502 196 168 116
100.874923 0.207132 -34.274517 196 168 116
100.876854 0.206489 -34.222650 196 168 116
100.875449 0.215909 -34.168565 160 148 118
100.874699 0.232297 -34.144322 100 113 121
100.878852 0.271712 -37.155628 74 98 122
100.874484 0.273863 -37.146178 74 98 122
100.878696 0.281253 -36.275519 77 139 122
100.895966 0.258141 -36.227099 77 139 122
100.868388 0.256208 -36.168973 77 139 122
100.856522 0.287184 -36.104561 77 139 122
100.887856 0.286182 -36.097729 77 139 122
100.857239 0.262583 -36.024792 77 139 122
100.894951 0.271076 -35.450356 77 139 122
100.874846 0.284501 -35.421754 77 139 122
100.874997 0.288782 -35.372173 77 139 122
100.873355 0.273157 -34.154734 74 98 122
100.876705 0.279130 -34.144523 74 98 122
100.872246 0.325084 -37.154109 74 98 122
100.872581 0.327922 -37.144623 74 98 122
100.863818 0.320211 -36.265095 77 139 122
100.886230 0.327485 -36.230289 77 139 122
100.862732 0.333640 -36.177776 77 139 122
100.866604 0.328511 -36.137444 77 139 122
100.889961 0.324896 -35.469563 77 139 122
100.871546 0.315469 -35.421578 77 139 122
100.863715 0.322199 -35.381161 77 139 122
100.874311 0.326774 -34.155133 74 98 122
100.877022 0.322789 -34.145353 74 98 122
100.875758 0.376967 -37.154199 74 98 122
100.876536 0.377970 -37.144982 74 98 122
100.862656 0.354646 -36.253073 77 139 122
100.874672 0.381292 -36.230405 77 139 122
100.860140 0.370633 -36.178869 77 139 122
100.853920 0.387617 -35.981941 77 139 122
100.884384 0.381391 -35.457792 77 139 122
100.869840 0.378789 -35.430285 77 139 122
100.852600 0.378837 -35.397915 77 139 122
100.876999 0.376231 -34.154977 74 98 122
100.874115 0.377641 -34.145892 74 98 122
100.877412 0.425023 -37.153755 74 98 122
100.874947 0.423281 -37.144727 74 98 122
100.876486 0.432151 -36.215744 77 139 122
100.875027 0.411294 -36.196391 77 139 122
100.872597 0.433495 -36.017185 77 139 122
100.889697 0.432592 -35.454830 77 139 122
100.873322 0.421447 -35.425334 77 139 122
100.857349 0.436817 -35.395521 77 139 122
100.875895 0.425093 -34.157085 74 98 122
100.878483 0.424935 -34.145196 74 98 122
100.876029 0.466645 -37.154546 74 98 122
100.876894 0.473171 -37.140836 74 98 122
100.866573 0.457827 -36.206703 77 139 122
100.884991 0.460445 -36.194696 77 139 122
100.890289 0.451952 -35.450695 77 139 122
100.875453 0.462250 -35.420091 77 139 122
100.875365 0.477138 -34.157750 74 98 122
100.875164 0.475315 -34.145763 74 98 122
100.897545 0.512898 -37.150204 74 98 122
100.879388 0.530081 -37.116052 74 98 122
100.873975 0.526899 -34.157977 74 98 122
100.878079 0.521022 -34.146408 74 98 122
100.888914 0.585509 -37.152920 74 98 122
100.877578 0.580762 -37.123373 74 98 122
100.880363 0.563957 -35.365194 77 139 122
100.878558 0.576391 -35.342472 77 139 122
100.874383 0.574446 -34.157520 74 98 122
100.873657 0.573093 -34.146975 74 98 122
100.875047 0.628281 -37.154471 74 98 122
100.877024 0.624301 -37.136604 74 98 122
100.884346 0.632825 -36.272400 77 139 122
100.882851 0.647898 -36.189044 77 139 122
100.883021 0.648190 -35.437408 77 139 122
100.895508 0.647042 -35.371014 77 139 122
100.861281 0.625174 -35.324265 77 139 122
100.895554 0.649678 -35.287251 77 139 122
100.874342 0.625901 -34.158121 74 98 122
100.880172 0.623858 -34.146456 74 98 122
100.877413 0.670005 -37.153804 74 98 122
100.875209 0.675941 -37.135718 74 98 122
100.859133 0.673250 -36.288354 77 139 122
100.875718 0.680937 -36.220604 77 139 122
100.873193 0.658212 -36.176235 77 139 122
100.879724 0.664921 -36.131045 77 139 122
100.869395 0.673944 -36.085338 77 139 122
100.860954 0.678907 -35.600712 77 139 122
100.869995 0.673229 -35.574345 77 139 122
100.874473 0.664967 -35.519373 77 139 122
100.874454 0.662966 -35.476237 77 139 122
100.863419 0.660021 -35.431317 77 139 122
100.880854 0.658809 -35.375130 77 139 122
100.859926 0.680819 -35.311049 77 139 122
100.875530 0.682473 -35.290367 77 139 122
100.875851 0.676114 -34.157476 74 98 122
100.877098 0.677367 -34.146538 74 98 122
100.872199 0.726921 -37.153728 74 98 122
100.876312 0.724420 -37.139033 74 98 122
100.878745 0.731848 -36.310379 77 139 122
100.866344 0.722216 -36.277395 77 139 122
100.883087 0.701844 -36.218422 77 139 122
100.894470 0.714931 -36.152115 77 139 122
100.875003 0.730429 -35.319946 77 139 122
100.870371 0.729693 -35.286424 77 139 122
100.874919 0.725672 -34.157424 74 98 122
100.875404 0.727608 -34.146759 74 98 122
100.867906 0.771992 -37.155511 74 98 122
100.876185 0.774697 -37.139335 74 98 122
100.867442 0.775775 -36.312146 77 139 122
100.872644 0.779516 -36.270103 77 139 122
100.887886 0.773008 -36.234442 77 139 122
100.876607 0.777040 -35.310083 77 139 122
100.873621 0.776359 -35.276657 77 139 122
100.875369 0.775437 -34.156966 74 98 122
100.876357 0.777496 -34.147148 74 98 122
100.872802 0.825967 -37.154466 74 98 122
100.875445 0.825864 -37.139792 74 98 122
100.881097 0.818934 -36.317711 77 139 122
100.882622 0.824880 -36.283535 77 139 122
100.865677 0.809322 -36.248703 77 139 122
100.869544 0.815919 -35.310556 77 139 122
100.876516 0.824769 -35.269751 77 139 122
100.875159 0.825533 -34.157171 74 98 122
100.873050 0.825107 -34.147368 74 98 122
100.871939 0.875907 -37.153815 74 98 122
100.875458 0.874844 -37.139314 74 98 122
100.878471 0.881125 -36.319988 77 139 122
100.868252 0.878497 -36.285857 77 139 122
100.873550 0.884788 -35.308309 77 139 122
100.875269 0.876195 -35.270853 77 139 122
100.884753 0.886514 -35.246232 77 139 122
100.875048 0.874199 -34.157154 74 98 122
100.872562 0.876795 -34.146990 74 98 122
100.876198 0.925402 -37.153601 74 98 122
100.875770 0.925813 -37.138596 74 98 122
100.875630 0.928863 -36.357528 77 139 122
100.876613 0.931747 -36.326855 77 139 122
100.876208 0.935192 -36.269024 86 149 158
100.873629 0.946816 -36.225143 90 154 174
100.877023 0.947833 -36.174459 90 154 174
100.874791 0.947805 -36.127640 90 154 174
100.875205 0.947679 -36.074127 90 154 174
100.875939 0.947688 -36.025712 90 154 174
100.876243 0.947230 -35.975604 90 154 174
100.876555 0.947692 -35.922976 90 154 174
100.876993 0.947343 -35.875152 90 154 174
100.876392 0.947541 -35.826650 90 154 174
100.876027 0.947852 -35.777622 90 154 174
100.877112 0.947949 -35.729084 90 154 174
100.876961 0.947783 -35.676769 90 154 174
100.876629 0.947684 -35.625563 90 154 174
100.875964 0.948291 -35.578060 90 154 174
100.877377 0.948328 -35.524104 90 154 174
100.875084 0.948258 -35.472496 90 154 174
100.876187 0.948032 -35.424962 90 154 174
100.873255 0.947504 -35.371747 90 154 174
100.877235 0.943398 -35.342445 90 154 173
100.874160 0.925372 -35.264929 77 139 122
100.879758 0.924478 -35.240827 77 139 122
100.876335 0.925839 -34.156526 74 98 122
100.877858 0.926359 -34.146977 74 98 122
100.877429 0.973017 -37.153612 74 98 122
100.874625 0.977555 -37.136363 74 98 122
100.881836 0.998883 -36.406288 77 139 122
100.882355 0.987820 -36.356951 77 139 122
100.872731 0.972732 -36.333710 77 139 122
100.878902 0.956259 -36.255461 90 154 174
100.874500 0.958984 -36.222283 90 154 174
100.875388 0.959968 -36.174433 90 154 174
100.873717 0.959128 -36.124692 90 154 174
100.875165 0.958891 -36.075290 90 154 174
100.875026 0.959326 -36.024698 90 154 174
100.874848 0.959385 -35.975252 90 154 174
100.874929 0.957742 -35.924768 90 154 174
100.874159 0.957199 -35.875633 90 154 174
100.874278 0.956872 -35.824009 90 154 174
100.874774 0.956986 -35.774484 90 154 174
100.874538 0.957743 -35.724644 90 154 174
100.874223 0.958382 -35.674472 90 154 174
100.874579 0.957772 -35.624851 90 154 174
100.875238 0.957034 -35.575201 90 154 174
100.874683 0.957088 -35.524794 90 154 174
100.874795 0.957688 -35.475650 90 154 174
100.874469 0.957694 -35.424590 90 154 174
100.874283 0.957611 -35.375784 90 154 174
100.878812 0.957663 -35.345075 90 154 174
100.872393 0.970253 -35.258995 77 139 122
100.878435 0.983158 -35.240336 77 139 122
100.873352 0.975037 -34.156251 74 98 122
100.871047 0.975659 -34.147078 74 98 122
100.877975 1.022620 -37.153854 74 98 122
100.875197 1.025037 -37.135315 74 98 122
100.885029 1.014466 -36.406476 77 139 122
100.875582 1.013006 -36.369873 77 139 122
100.866904 1.006808 -36.342863 77 139 122
100.864733 1.007543 -35.254923 77 139 122
100.876078 1.014796 -35.223726 77 139 122
100.883224 1.023296 -35.194702 77 139 122
100.875951 1.025364 -34.155935 74 98 122
100.874150 1.028643 -34.146764 74 98 122
100.880732 1.074178 -37.153538 74 98 122
100.875366 1.075568 -37.135131 74 98 122
100.874288 1.074770 -34.155630 74 98 122
100.874036 1.076264 -34.146563 74 98 122
100.877826 1.125395 -37.153662 74 98 122
100.876104 1.125712 -37.135127 74 98 122
100.875771 1.125774 -34.155287 74 98 122
100.876015 1.126389 -34.145721 74 98 122
100.878194 1.175675 -37.154028 74 98 122
100.874743 1.175820 -37.135034 74 98 122
100.873945 1.175271 -34.154859 74 98 122
100.873336 1.175593 -34.146529 74 98 122
100.880539 1.224874 -37.155011 74 98 122
100.875186 1.225040 -37.135229 74 98 122
100.876338 1.224545 -34.155125 74 98 122
100.875633 1.226731 -34.146529 74 98 122
100.879267 1.279115 -37.153963 74 98 122
100.875298 1.275153 -37.133722 74 98 122
100.875532 1.275064 -34.154903 74 98 122
100.873313 1.276662 -34.146502 74 98 122
100.877103 1.324900 -37.153173 74 98 122
100.876040 1.325186 -37.135574 74 98 122
100.875023 1.327546 -34.154893 74 98 122
100.875216 1.326561 -34.146133 74 98 122
100.876248 1.375063 -37.153915 74 98 122
100.875632 1.374838 -37.135482 74 98 122
100.874171 1.377104 -34.165118 70 107 110
100.875187 1.361040 -34.146347 74 98 122
100.876341 1.428095 -37.154016 74 98 122
100.874910 1.424834 -37.134848 74 98 122
100.875311 1.413405 -34.202312 63 122 92
100.875812 1.425564 -34.181978 63 122 92
100.874005 1.475676 -37.153259 74 98 122
100.876450 1.475852 -37.134527 74 98 122
100.875607 1.483228 -34.205915 63 122 92
100.874582 1.476170 -34.181681 63 122 92
100.875135 1.525066 -37.154118 74 98 122
100.875471 1.525516 -37.134696 74 98 122
100.872917 1.525951 -34.202610 63 122 92
100.874875 1.527259 -34.181995 63 122 92
100.877490 1.575832 -37.154549 74 98 122
100.875942 1.575191 -37.134999 74 98 122
100.888916 1.574244 -34.202212 63 122 92
100.874763 1.574623 -34.181599 63 122 92
100.875416 1.622848 -37.154499 74 98 122
100.875895 1.625560 -37.135057 74 98 122
100.871468 1.622012 -34.203932 63 122 92
100.874662 1.623950 -34.181866 63 122 92
100.876175 1.671701 -37.154164 74 98 122
100.874911 1.675642 -37.135555 74 98 122
100.877296 1.676157 -34.202105 63 122 92
100.875176 1.675454 -34.181905 63 122 92
100.875337 1.726440 -37.153619 74 98 122
100.875462 1.725018 -37.135117 74 98 122
100.866750 1.716487 -34.202450 63 122 92
100.875113 1.725344 -34.181283 63 122 92
100.876055 1.776157 -37.153687 74 98 122
100.875238 1.776022 -37.135484 74 98 122
100.871526 1.779151 -34.203397 63 122 92
100.875446 1.774982 -34.182094 63 122 92
100.875120 1.826055 -37.154040 74 98 122
100.874819 1.825569 -37.134902 74 98 122
100.872069 1.820860 -34.202132 63 122 92
100.875625 1.825913 -34.181137 63 122 92
100.877803 1.878520 -37.154759 74 98 122
100.875788 1.874621 -37.133843 74 98 122
100.851334 1.867240 -34.204634 63 122 92
100.875156 1.874945 -34.180182 63 122 92
100.877065 1.925540 -37.153716 74 98 122
100.874959 1.925186 -37.135893 74 98 122
100.873094 1.927701 -34.201919 63 122 92
100.874231 1.924096 -34.179723 63 122 92
100.878898 1.974532 -37.153941 74 98 122
100.874655 1.975483 -37.136654 74 98 122
100.871141 1.968010 -34.202683 63 122 92
100.875181 1.975219 -34.180162 63 122 92
100.877784 2.022533 -37.154194 74 98 122
100.874209 2.024528 -37.136919 74 98 122
100.884091 2.035854 -34.204545 63 122 92
100.874802 2.024959 -34.180016 63 122 92
100.877500 2.073911 -37.153425 74 98 122
100.874785 2.075563 -37.137047 74 98 122
100.871538 2.071633 -34.203306 63 122 92
100.874791 2.075222 -34.179784 63 122 92
100.878373 2.123828 -37.153054 74 98 122
100.874459 2.125067 -37.136661 74 98 122
100.871071 2.122728 -34.203157 63 122 92
100.875289 2.125056 -34.180073 63 122 92
100.880675 2.177980 -37.153897 74 98 122
100.874328 2.173802 -37.136972 74 98 122
100.876476 2.174833 -34.202668 63 122 92
100.874972 2.175431 -34.180123 63 122 92
100.878279 2.230244 -37.152772 74 98 122
100.874664 2.225670 -37.136844 74 98 122
100.876894 2.224522 -34.205438 63 122 92
100.874742 2.224966 -34.180232 63 122 92
100.879729 2.275336 -37.153587 74 98 122
100.873330 2.274835 -37.135999 74 98 122
100.882624 2.267450 -34.201802 63 122 92
100.875119 2.273533 -34.180186 63 122 92
100.879320 2.325680 -37.153073 74 98 122
100.874152 2.325081 -37.136790 74 98 122
100.875438 2.323540 -34.159594 72 103 116
100.874860 2.335764 -34.144419 74 98 122
100.880287 2.375965 -37.152994 74 98 122
100.874269 2.375040 -37.136869 74 98 122
100.874944 2.374863 -34.154009 74 98 122
100.874859 2.374760 -34.144114 74 98 122
100.880363 2.422373 -37.154202 74 98 122
100.874463 2.423767 -37.134595 74 98 122
100.875370 2.424641 -34.154047 74 98 122
100.873900 2.425302 -34.144747 74 98 122
100.876082 2.478875 -37.153795 74 98 122
100.873190 2.475705 -37.137000 74 98 122
100.875369 2.474416 -34.154034 74 98 122
100.876107 2.475186 -34.144678 74 98 122
100.876466 2.525895 -37.153087 74 98 122
100.873753 2.525717 -37.136988 74 98 122
100.875766 2.525588 -34.154119 74 98 122
100.874530 2.524632 -34.143945 74 98 122
100.875579 2.577296 -37.153438 74 98 122
100.873466 2.574442 -37.137418 74 98 122
100.873931 2.573971 -34.154031 74 98 122
100.875440 2.574840 -34.143809 74 98 122
100.875715 2.626826 -37.152782 74 98 122
100.873765 2.623761 -37.137165 74 98 122
100.874847 2.624968 -34.153724 74 98 122
100.874514 2.624589 -34.143904 74 98 122
100.875710 2.674538 -37.153722 74 98 122
100.873942 2.675016 -37.137828 74 98 122
100.874702 2.674771 -34.153994 74 98 122
100.875073 2.674351 -34.144023 74 98 122
100.877223 2.724323 -37.153382 74 98 122
100.873483 2.725322 -37.137795 74 98 122
100.875077 2.725126 -34.154246 74 98 122
100.875664 2.724179 -34.143625 74 98 122
100.877300 2.777441 -37.154212 74 98 122
100.874207 2.774599 -37.138240 74 98 122
100.874921 2.774488 -34.154333 74 98 122
100.874880 2.774696 -34.144180 74 98 122
100.874914 2.825021 -37.153920 74 98 122
100.872440 2.824983 -37.137727 74 98 122
100.875141 2.824780 -34.154432 74 98 122
100.875709 2.824395 -34.144120 74 98 122
100.877216 2.878232 -37.154317 74 98 122
100.873421 2.874589 -37.137995 74 98 122
100.874366 2.875870 -34.154385 74 98 122
100.874443 2.875157 -34.144017 74 98 122
100.875709 2.926924 -37.154387 74 98 122
100.872857 2.925016 -37.139508 74 98 122
100.874479 2.924803 -34.154742 74 98 122
100.875119 2.926066 -34.144211 74 98 122
100.877899 2.973354 -37.154832 74 98 122
100.871831 2.976853 -37.138947 74 98 122
100.875683 2.974372 -34.154950 74 98 122
100.875419 2.973445 -34.143993 74 98 122
100.879864 3.025511 -37.154660 74 98 122
100.873762 3.022953 -37.137617 74 98 122
100.875144 3.025831 -34.154342 74 98 122
100.874233 3.024519 -34.143791 74 98 122
100.876428 3.070476 -37.154223 93 98 135
100.874866 3.080964 -37.131265 111 98 147
100.875659 3.087927 -37.074062 122 98 154
100.875679 3.086329 -37.024928 122 98 154
100.874720 3.087553 -36.974772 122 98 154
100.874758 3.086629 -36.924204 122 98 154
100.872216 3.091387 -36.889795 122 98 154
100.873907 3.075459 -34.154734 74 98 122
100.875150 3.074607 -34.143899 74 98 122
100.871288 3.103571 -37.155427 122 98 154
100.877738 3.104367 -37.121216 122 98 154
100.883261 3.104743 -37.079291 122 98 154
100.880493 3.103408 -37.025437 122 98 154
100.878239 3.104333 -36.976716 122 98 154
100.876825 3.105310 -36.917382 122 98 154
100.875090 3.123315 -36.885608 122 98 154
100.876610 3.123570 -34.155016 74 98 122
100.874850 3.124550 -34.143625 74 98 122
100.880051 3.167725 -36.901491 122 98 154
100.875278 3.175921 -36.882270 122 98 154
100.868626 3.198728 -36.847685 122 98 154
100.874189 3.175353 -34.154883 74 98 122
100.875588 3.175161 -34.143659 74 98 122
100.880665 3.229152 -36.901155 122 98 154
100.874974 3.223260 -36.878249 122 98 154
100.861027 3.222576 -36.848143 122 98 154
100.875092 3.225062 -34.155058 74 98 122
100.876074 3.223961 -34.142865 74 98 122
100.874967 3.275355 -36.876741 122 98 154
100.876789 3.274702 -34.154899 74 98 122
100.874958 3.275489 -34.142489 74 98 122
100.874848 3.325119 -36.873820 122 98 154
100.857511 3.341558 -36.847338 122 98 154
100.874608 3.325599 -34.154766 74 98 122
100.873216 3.324722 -34.141960 74 98 122
100.875460 3.375468 -36.869192 122 98 154
100.867246 3.385514 -36.846388 122 98 154
100.874993 3.376058 -34.155609 74 98 122
100.874480 3.375324 -34.141778 74 98 122
100.876611 3.424851 -36.863997 122 98 154
100.875237 3.437771 -36.823715 152 144 183
100.874172 3.439733 -36.776322 197 213 226
100.875994 3.439563 -36.725093 197 213 226
100.875513 3.439641 -36.675053 197 213 226
100.875329 3.439329 -36.624226 197 213 226
100.875281 3.439241 -36.575842 197 213 226
100.874406 3.439807 -36.522931 197 213 226
100.874638 3.439243 -36.475131 197 213 226
100.874172 3.439409 -36.425848 197 213 226
100.874212 3.439065 -36.375935 197 213 226
100.874592 3.439883 -36.325209 197 213 226
100.874797 3.439605 -36.274493 197 213 226
100.874959 3.439618 -36.225374 197 213 226
100.874093 3.440023 -36.175458 197 213 226
100.875250 3.439902 -36.124685 197 213 226
100.874890 3.439589 -36.075570 197 213 226
100.875118 3.439749 -36.025149 197 213 226
100.874778 3.440025 -35.974941 197 213 226
100.874386 3.439462 -35.924889 197 213 226
100.875155 3.439757 -35.874731 197 213 226
100.874687 3.439956 -35.824888 197 213 226
100.875443 3.439627 -35.773976 197 213 226
100.874901 3.439322 -35.724984 197 213 226
100.875198 3.439525 -35.674323 197 213 226
100.875158 3.439082 -35.625084 197 213 226
100.875022 3.438587 -35.574991 197 213 226
100.875386 3.438458 -35.524431 197 213 226
100.874669 3.438268 -35.474933 197 213 226
100.874966 3.438475 -35.424983 197 213 226
100.875707 3.438425 -35.376079 197 213 226
100.874735 3.438694 -35.323717 197 213 226
100.874211 3.439337 -35.275297 197 213 226
100.875393 3.439205 -35.225299 197 213 226
100.874463 3.440076 -35.173692 197 213 226
100.875354 3.439693 -35.125378 197 213 226
100.874735 3.440076 -35.075638 197 213 226
100.874561 3.440502 -35.025210 197 213 226
100.875739 3.440356 -34.974429 197 213 226
100.874931 3.440013 -34.924393 197 213 226
100.875306 3.439797 -34.876447 197 213 226
100.874924 3.439444 -34.825362 197 213 226
100.875193 3.438785 -34.774630 197 213 226
100.875238 3.438734 -34.725297 197 213 226
100.875962 3.438349 -34.675009 197 213 226
100.875383 3.438534 -34.626076 197 213 226
100.874657 3.438842 -34.575157 197 213 226
100.875206 3.438059 -34.524427 197 213 226
100.875538 3.437913 -34.475364 197 213 226
100.874951 3.437262 -34.424716 197 213 226
100.875159 3.437752 -34.374740 197 213 226
100.874363 3.437997 -34.325056 197 213 226
100.876819 3.437616 -34.275183 197 213 226
100.874672 3.437769 -34.224720 197 213 226
100.876201 3.434961 -34.171541 189 206 219
100.875432 3.422953 -34.142179 152 171 188
100.874870 3.456245 -36.861101 122 98 154
100.870822 3.457202 -36.829397 138 122 169
100.874012 3.455011 -36.772308 197 213 226
100.872070 3.455337 -36.724396 197 213 226
100.871113 3.455416 -36.674498 197 213 226
100.871610 3.454708 -36.626670 197 213 226
100.872027 3.455645 -36.572045 197 213 226
100.871719 3.454425 -36.528457 197 213 226
100.872490 3.454146 -36.474758 197 213 226
100.873047 3.454823 -36.422841 197 213 226
100.869843 3.454119 -36.374083 197 213 226
100.872233 3.454647 -36.325663 197 213 226
100.872492 3.454387 -36.274186 197 213 226
100.870849 3.454278 -36.223647 197 213 226
100.870470 3.454865 -36.175514 197 213 226
100.873378 3.454582 -36.125376 197 213 226
100.871221 3.455295 -36.073413 197 213 226
100.871004 3.455252 -36.023564 197 213 226
100.871339 3.455124 -35.973653 197 213 226
100.870797 3.455201 -35.925134 197 213 226
100.870008 3.455273 -35.874262 197 213 226
100.870337 3.454980 -35.824600 197 213 226
100.868646 3.454909 -35.775216 197 213 226
100.869866 3.454884 -35.724356 197 213 226
100.870227 3.454356 -35.676011 197 213 226
100.871141 3.455293 -35.624754 197 213 226
100.869587 3.455087 -35.573839 197 213 226
100.872891 3.454670 -35.524780 197 213 226
100.870884 3.454911 -35.476975 197 213 226
100.872100 3.454924 -35.425675 197 213 226
100.871072 3.455409 -35.372766 197 213 226
100.871792 3.455391 -35.327140 197 213 226
100.870745 3.453980 -35.275330 197 213 226
100.871228 3.454518 -35.224738 197 213 226
100.872052 3.454608 -35.174331 197 213 226
100.872610 3.454281 -35.129409 197 213 226
100.872071 3.454302 -35.075750 197 213 226
100.870879 3.453407 -35.024540 197 213 226
100.871698 3.454390 -34.975008 197 213 226
100.870508 3.454378 -34.926532 197 213 226
100.869904 3.454893 -34.873807 197 213 226
100.872977 3.454620 -34.825627 197 213 226
100.872238 3.454743 -34.775431 197 213 226
100.872178 3.454719 -34.725520 197 213 226
100.870315 3.455528 -34.675505 197 213 226
100.874511 3.455062 -34.624341 197 213 226
100.872766 3.455154 -34.574711 197 213 226
100.873103 3.455016 -34.526373 197 213 226
100.872095 3.455599 -34.474204 197 213 226
100.871248 3.455627 -34.424599 197 213 226
100.871682 3.455468 -34.377259 197 213 226
100.873298 3.455917 -34.324626 197 213 226
100.872958 3.456427 -34.275278 197 213 226
100.871776 3.457188 -34.226142 197 213 226
100.870176 3.455864 -34.176625 197 213 226
100.870221 3.453728 -34.146828 197 213 226
100.919644 0.198523 -37.118043 196 168 116
100.918344 0.197572 -37.070901 196 168 116
100.922284 0.195344 -37.021778 196 168 116
100.923109 0.193351 -36.965355 196 168 116
100.924965 0.192587 -36.919394 196 168 116
100.924940 0.194024 -36.878686 196 168 116
100.931780 0.194933 -36.821439 196 168 116
100.923845 0.196069 -36.772150 196 168 116
100.924928 0.193205 -36.723383 196 168 116
100.927906 0.194532 -36.669156 196 168 116
100.925891 0.194363 -36.624417 196 168 116
100.925557 0.195232 -36.575725 196 168 116
100.920794 0.194806 -36.524837 196 168 116
100.923363 0.196396 -36.476240 196 168 116
100.921993 0.194524 -36.426299 196 168 116
100.926598 0.192416 -36.378033 196 168 116
100.928414 0.194664 -36.330515 196 168 116
100.934036 0.193083 -36.273816 196 168 116
100.919020 0.196276 -36.217364 196 168 116
100.920721 0.195486 -36.182473 196 168 116
100.918526 0.193202 -36.131222 196 168 116
100.926867 0.195993 -36.078742 196 168 116
100.927440 0.193471 -36.025586 196 168 116
100.932781 0.195940 -35.973042 196 168 116
100.933322 0.194218 -35.944828 196 168 116
100.923637 0.197632 -35.858948 196 168 116
100.931363 0.197819 -35.820325 196 168 116
100.927122 0.197800 -35.785255 196 168 116
100.923660 0.196042 -35.663910 196 168 116
100.921238 0.198704 -35.625616 196 168 116
100.932771 0.192922 -35.571414 196 168 116
100.925688 0.192696 -35.515475 196 168 116
100.928391 0.189386 -35.479190 196 168 116
100.925834 0.189233 -35.431924 196 168 116
100.932972 0.190477 -35.371796 196 168 116
100.930767 0.195950 -35.322384 196 168 116
100.928311 0.192841 -35.264320 196 168 116
100.923673 0.195020 -35.223201 196 168 116
100.928354 0.193242 -35.175393 196 168 116
100.925588 0.195710 -35.128333 196 168 116
100.927135 0.195921 -35.075303 196 168 116
100.923263 0.196562 -35.025259 196 168 116
100.926469 0.196475 -34.975602 196 168 116
100.926526 0.197504 -34.925607 196 168 116
100.921685 0.198524 -34.867382 196 168 116
100.927599 0.197641 -34.822725 196 168 116
100.922323 0.198567 -34.776100 196 168 116
100.923042 0.197629 -34.719910 196 168 116
100.922194 0.198589 -34.673680 196 168 116
100.923050 0.198043 -34.629611 196 168 116
100.931181 0.197879 -34.581476 196 168 116
100.927456 0.197874 -34.528691 196 168 116
100.925315 0.198048 -34.475416 196 168 116
100.923206 0.198261 -34.427701 196 168 116
100.927718 0.198060 -34.377585 196 168 116
100.923331 0.196687 -34.315116 196 168 116
100.923507 0.198419 -34.270960 196 168 116
100.923257 0.198650 -34.225493 196 168 116
100.922964 0.197892 -34.177708 196 168 116
100.914421 0.198910 -34.147202 196 168 116
100.925721 0.229944 -37.155216 122 125 120
100.924300 0.212606 -37.128418 181 159 117
100.925831 0.207016 -37.073971 196 168 116
100.927797 0.207339 -37.025868 196 168 116
100.927470 0.206864 -36.975748 196 168 116
100.924140 0.206882 -36.923922 196 168 116
100.924717 0.206503 -36.876663 196 168 116
100.923314 0.207019 -36.825146 196 168 116
100.923607 0.208085 -36.772519 196 168 116
100.926442 0.207718 -36.724771 196 168 116
100.923393 0.207344 -36.676292 196 168 116
100.923303 0.207815 -36.627575 196 168 116
100.925556 0.207523 -36.575904 196 168 116
100.923496 0.208280 -36.526435 196 168 116
100.922387 0.207896 -36.474168 196 168 116
100.925159 0.207422 -36.423936 196 168 116
100.923856 0.207446 -36.373929 196 168 116
100.925371 0.208481 -36.324895 196 168 116
100.921979 0.208082 -36.277131 196 168 116
100.920375 0.212253 -36.226459 181 164 117
100.923254 0.208976 -36.174332 194 168 116
100.923514 0.210374 -36.127521 189 166 116
100.924334 0.207484 -36.079184 196 168 116
100.928139 0.210083 -36.028121 193 167 116
100.925957 0.210274 -35.977202 191 167 116
100.925301 0.212567 -35.917809 196 168 116
100.916834 0.208499 -35.864487 196 168 116
100.914360 0.208858 -35.821545 196 168 116
100.922491 0.206581 -35.770762 196 168 116
100.915391 0.208056 -35.715835 196 168 116
100.919107 0.209236 -35.667021 196 168 116
100.923554 0.207468 -35.622211 196 168 116
100.927007 0.207830 -35.574696 196 168 116
100.923605 0.207034 -35.525024 196 168 116
100.922119 0.211694 -35.472744 179 164 117
100.929868 0.209870 -35.425650 196 168 116
100.931228 0.209304 -35.373248 189 166 116
100.923593 0.208125 -35.322792 196 168 116
100.926429 0.207119 -35.273524 196 168 116
100.925459 0.207620 -35.225557 196 168 116
100.925397 0.208038 -35.175133 196 168 116
100.920732 0.206628 -35.123314 196 168 116
100.925775 0.206610 -35.075217 196 168 116
100.926553 0.207657 -35.025577 196 168 116
100.926774 0.206725 -34.975588 196 168 116
100.925593 0.206350 -34.925744 196 168 116
100.926499 0.206615 -34.875952 196 168 116
100.927983 0.206404 -34.826170 196 168 116
100.925057 0.206844 -34.773751 196 168 116
100.925058 0.206114 -34.725635 196 168 116
100.925546 0.205526 -34.674386 196 168 116
100.927194 0.207059 -34.625111 196 168 116
100.927640 0.206904 -34.575573 196 168 116
100.925820 0.207279 -34.526055 196 168 116
100.925610 0.207734 -34.474994 196 168 116
100.925553 0.207411 -34.423852 196 168 116
100.925974 0.207433 -34.374533 196 168 116
100.925282 0.206819 -34.325681 196 168 116
