156.08236694 5.15002108 -21.23301315 47 47 143
156.06114197 5.16714764 -20.82852364 47 47 143
155.55523682 4.94584274 -21.35651588 47 47 143
155.65176392 5.01888514 -21.40747452 47 47 143
155.42602539 4.91601563 -20.82189369 47 47 143
155.52517700 4.96761560 -20.83599472 47 47 143
155.13177490 4.82714939 -20.82663918 47 47 143
155.34365845 4.89724112 -20.83147621 47 47 143
154.86230469 5.30071259 -21.51617050 47 47 143
154.52453613 5.21192789 -21.47645187 47 47 143
154.82673645 5.33286667 -21.54280281 47 47 143
154.47868347 5.21262121 -21.46213722 47 47 143
154.61054993 5.31994343 -21.53506088 47 47 143
153.85147095 5.35631752 -21.52672768 47 47 143
153.22644043 4.93581915 -20.80326080 47 47 143
155.62748718 5.30200577 -21.52386665 47 47 143
155.28947449 5.29294920 -21.52103043 47 47 143
155.46804810 5.12183523 -21.45754051 47 47 143
154.98663330 5.18690634 -21.47625923 47 47 143
155.16720581 4.99977970 -21.40544510 47 47 143
154.67163086 5.08031368 -21.43606186 47 47 143
155.20744324 4.86542892 -20.83850479 47 47 143
156.08924866 5.01960659 -21.15979767 47 47 143
156.07540894 4.93545389 -20.84497452 47 47 143
155.90306091 4.86197901 -20.83744049 47 47 143
155.50965881 4.90058661 -20.83067322 47 47 143
155.63484192 4.74765873 -20.83490944 47 47 143
156.00386047 4.81472874 -20.84164619 47 47 143
156.00068665 4.78528070 -20.84026718 47 47 143
155.88020325 4.70695162 -20.90029526 47 47 143
156.09516907 5.13391399 -21.01899147 47 47 143
155.86932373 5.02814293 -20.84072495 47 47 143
155.95079041 5.09429359 -20.84378815 47 47 143
155.59852600 4.93300056 -20.83848381 47 47 143
155.67842102 4.98024416 -20.86885643 47 47 143
155.31272888 4.83307791 -20.83988762 47 47 143
155.21472168 4.79597473 -20.83860397 47 47 143
155.15180969 5.26987171 -21.51514816 47 47 143
155.17646790 5.34063864 -21.55877304 47 47 143
154.97024536 5.26620770 -21.51835251 47 47 143
154.57392883 5.09621477 -21.26886559 47 47 143
154.63858032 5.15473747 -21.48120308 47 47 143
154.56286621 5.12674189 -21.43889618 47 47 143
155.31817627 5.35951757 -21.54760170 47 47 143
155.26744080 5.20876646 -21.50077438 47 47 143
154.90036011 5.19257307 -21.48638153 47 47 143
154.38145447 5.27392960 -21.50732803 47 47 143
154.57838440 5.06735897 -21.42774582 47 47 143
154.76792908 4.95262766 -20.88265038 47 47 143
156.09246826 5.14745522 -21.45286560 47 47 143
156.01759338 5.11089849 -20.84138489 47 47 143
155.43789673 5.09024096 -21.44304276 47 47 143
155.61248779 4.94438648 -21.37451553 47 47 143
155.13652039 4.98199081 -21.40229034 47 47 143
155.48321533 4.88626814 -20.83966064 47 47 143
155.29196167 4.80597258 -20.84192085 47 47 143
155.97761536 4.94858980 -20.82637978 47 47 143
155.89730835 4.84698009 -20.84321022 47 47 143
155.72013855 4.77646828 -20.83805275 47 47 143
155.87403870 4.75343704 -20.85238838 47 47 143
156.08421326 4.83426762 -20.92876434 47 47 143
155.92376709 4.77303457 -20.84582520 47 47 143
156.08105469 5.07816648 -21.25389290 47 47 143
156.05491638 5.09930325 -20.83673286 47 47 143
155.71392822 4.93323421 -20.83174706 47 47 143
155.78509521 4.99279022 -20.86286163 47 47 143
155.43348694 4.84027863 -20.83745956 47 47 143
155.52090454 4.88863707 -20.83358002 47 47 143
155.23689270 4.77939701 -20.83646393 47 47 143
155.68804932 5.36043739 -21.54597092 47 47 143
155.38711548 5.31165791 -21.52455139 47 47 143
155.28640747 5.31180382 -21.52713394 47 47 143
154.96305847 5.17165995 -21.47677231 47 47 143
155.08642578 5.26064062 -21.51211548 47 47 143
154.62907410 5.06455040 -21.44306755 47 47 143
154.76675415 5.13677788 -21.46656990 47 47 143
154.57820129 5.03381872 -21.14335442 47 47 143
152.56231689 5.29281902 -21.48494339 47 47 143
154.70573425 5.35241604 -21.53584099 47 47 143
154.64636230 5.18963480 -21.47923279 47 47 143
154.54756165 5.11550236 -21.20131111 47 47 143
155.99446106 5.27575731 -21.50551987 47 47 143
155.66246033 5.24151802 -21.50241470 47 47 143
155.97523499 5.14260340 -20.84753609 47 47 143
155.36657715 5.12443304 -21.45652580 47 47 143
155.55543518 4.96923113 -21.40976143 47 47 143
155.05873108 5.00587177 -21.41817665 47 47 143
155.43579102 4.90212584 -20.84247971 47 47 143
154.72782898 4.97267962 -20.91951752 47 47 143
155.93841553 5.02906227 -20.82976723 47 47 143
156.06991577 4.82241344 -21.38299942 47 47 143
155.77366638 4.89227152 -20.84102440 47 47 143
155.89900208 4.77191305 -20.84412193 47 47 143
155.29841614 4.79586172 -20.84145355 47 47 143
155.96113586 4.83146811 -20.84408569 47 47 143
155.86918640 4.74493742 -20.85215378 47 47 143
156.06707764 4.78039026 -21.20644569 47 47 143
155.95591736 4.76126480 -20.84118080 47 47 143
156.07269287 5.00525713 -21.03638458 47 47 143
155.85282898 4.91386080 -20.83334732 47 47 143
155.92414856 4.97099543 -20.83110046 47 47 143
155.57838440 4.82221556 -20.83712006 47 47 143
155.65614319 4.86252642 -20.83553696 47 47 143
155.38386536 4.75672960 -20.83917809 47 47 143
155.95956421 5.30677700 -21.52183914 47 47 143
155.84559631 5.37138653 -21.58048439 47 47 143
155.65345764 5.29516935 -21.52345657 47 47 143
155.35198975 5.15168619 -21.46652031 47 47 143
155.45765686 5.24906635 -21.49570084 47 47 143
155.03486633 5.04446554 -21.43844604 47 47 143
155.15010071 5.12423706 -21.46012878 47 47 143
154.94338989 5.04099751 -21.42381096 47 47 143
152.76736450 5.07715845 -21.23020172 47 47 143
153.61718750 5.35573387 -21.52781487 47 47 143
155.94122314 5.30293703 -21.51951408 47 47 143
155.74298096 5.21388578 -21.50163841 47 47 143
155.24971008 5.24331045 -21.50268745 47 47 143
155.44789124 5.08223391 -21.44719124 47 47 143
154.93945313 5.12490082 -21.46098137 47 47 143
155.14979553 4.95082426 -21.37586975 47 47 143
154.61904907 5.00480032 -21.41774750 47 47 143
154.73056030 4.74768829 -20.84963417 47 47 143
156.08660889 5.01812124 -21.49280357 47 47 143
156.01675415 4.99997091 -20.84438705 47 47 143
155.46092224 4.95598507 -21.39959717 47 47 143
155.75445557 4.88718224 -20.84380913 47 47 143
155.35317993 4.91312933 -20.83807182 47 47 143
155.48268127 4.77083302 -20.84067917 47 47 143
156.06764221 4.83660793 -21.25355339 47 47 143
156.05323792 4.79750299 -20.84673119 47 47 143
155.86488342 4.70948362 -20.90892792 47 47 143
155.91903687 4.77001429 -20.84615517 47 47 143
156.06710815 4.91123724 -20.86671066 47 47 143
155.97259521 4.88955736 -20.84659576 47 47 143
156.03822327 4.92527056 -20.84523392 47 47 143
155.70465088 4.78857708 -20.84544373 47 47 143
155.60269165 4.74119282 -20.84371376 47 47 143
155.94805908 5.14618063 -20.83545113 47 47 143
155.85607910 5.15045881 -20.84846306 47 47 143
155.80000305 5.20922518 -21.48152351 47 47 143
155.41012573 5.00559902 -21.41416550 47 47 143
155.50477600 5.08481550 -21.44424438 47 47 143
155.31147766 4.96065235 -20.83060455 47 47 143
155.21716309 4.93860674 -20.83171272 47 47 143
154.61225891 5.31231308 -21.52141762 47 47 143
154.52046204 5.30213070 -21.51459312 47 47 143
154.43269348 5.28074121 -21.50351906 47 47 143
152.70639038 5.21527386 -21.11683273 47 47 143
155.64169312 5.26825428 -21.51647758 47 47 143
155.44271851 5.18096018 -21.48129272 47 47 143
154.93103027 5.23088264 -21.50926018 47 47 143
155.13340759 5.04889536 -21.43535423 47 47 143
154.61337280 5.11400509 -21.45796585 47 47 143
154.57772827 5.06283951 -21.08147812 47 47 143
155.92753601 5.17898893 -20.83932304 47 47 143
156.09034729 4.97184467 -21.37213135 47 47 143
155.62652588 4.98287535 -21.41111946 47 47 143
155.91596985 4.90598345 -20.84057808 47 47 143
155.50733948 4.93285084 -20.83732986 47 47 143
155.64508057 4.78252459 -20.84967804 47 47 143
155.12384033 4.78378105 -20.84582138 47 47 143
156.08300781 4.79579449 -21.06760406 47 47 143
155.94918823 4.75497389 -20.84583282 47 47 143
156.07041931 4.84105873 -20.84482956 47 47 143
156.04597473 4.82642508 -20.84554672 47 47 143
155.87051392 4.75229359 -20.84700394 47 47 143
156.09797668 5.10168076 -20.92733765 47 47 143
155.93856812 5.04574156 -20.84324646 47 47 143
156.01434326 5.11635065 -20.84003639 47 47 143
155.67286682 4.95046568 -20.83475304 47 47 143
155.60635376 4.94771004 -21.38780785 47 47 143
155.39202881 4.85004234 -20.84234810 47 47 143
155.47927856 4.88851070 -20.84326553 47 47 143
155.18933105 4.76651239 -20.84843826 47 47 143
155.35607910 5.32580090 -21.54518318 47 47 143
154.92163086 5.15222740 -21.47063065 47 47 143
155.05021667 5.25014496 -21.51403999 47 47 143
154.59094238 5.05786991 -21.42613220 47 47 143
154.72596741 5.13673258 -21.47306442 47 47 143
154.57179260 5.06999826 -21.30915451 47 47 143
152.73606873 5.34814978 -21.57234573 47 47 143
155.30508423 5.33666277 -21.54020119 47 47 143
154.82835388 5.27583504 -21.51844597 47 47 143
154.46432495 5.27480030 -21.50362206 47 47 143
154.66444397 5.07114649 -21.43739510 47 47 143
155.91186523 5.33835316 -21.52895546 47 47 143
155.84713745 5.21927977 -21.49884605 47 47 143
155.51942444 5.19569111 -21.48192215 47 47 143
155.82647705 5.09628344 -20.87665176 47 47 143
155.22203064 5.08805704 -21.43682480 47 47 143
155.52680969 4.97333431 -20.97296715 47 47 143
154.90960693 4.97749758 -21.40773201 47 47 143
155.41542053 4.81035662 -20.83957672 47 47 143
156.07896423 5.02639914 -20.88768959 47 47 143
156.07716370 4.87362528 -21.05186462 47 47 143
155.83979797 4.86487818 -20.84486771 47 47 143
155.95805359 4.74481535 -20.85295486 47 47 143
155.36946106 4.76839495 -20.84532166 47 47 143
155.92543030 4.73245716 -20.86448860 47 47 143
156.07936096 4.79555988 -20.90988731 47 47 143
156.07701111 4.99152708 -20.85451126 47 47 143
155.98390198 4.98321342 -20.84164047 47 47 143
156.05397034 5.04094505 -20.84010506 47 47 143
155.72018433 4.88630056 -20.83492279 47 47 143
155.79557800 4.92778540 -20.83600807 47 47 143
155.44209290 4.78367090 -20.83716774 47 47 143
155.42724609 4.76811790 -20.84714699 47 47 143
155.72906494 5.29859924 -21.52194977 47 47 143
155.62657166 5.30119038 -21.52779579 47 47 143
155.32504272 5.15924168 -21.46747017 47 47 143
155.43554688 5.25399446 -21.49636078 47 47 143
155.00958252 5.05296898 -21.43520546 47 47 143
155.12850952 5.13068724 -21.46049500 47 47 143
154.79869080 4.99568319 -21.41810799 47 47 143
154.70373535 4.96325731 -21.40033722 47 47 143
152.75694275 5.10701942 -21.25156212 47 47 143
154.36819458 5.32326651 -21.51510620 47 47 143
152.78895569 4.97419834 -21.34029388 47 47 143
155.99790955 5.21513128 -21.44038391 47 47 143
155.64617920 5.17970991 -21.47869873 47 47 143
155.16014099 5.22093248 -21.50517082 47 47 143
155.34881592 5.05619717 -21.43354225 47 47 143
154.85363770 5.11224174 -21.45671844 47 47 143
155.09217834 4.94457817 -21.26101112 47 47 143
154.78569031 4.94531107 -21.16966057 47 47 143
156.00361633 5.08108139 -20.84115410 47 47 143
155.93493652 4.97688580 -20.83908844 47 47 143
156.06170654 4.85652542 -20.85638618 47 47 143
155.67041016 4.87194347 -20.84072495 47 47 143
155.37945557 4.85453367 -20.83650398 47 47 143
156.07406616 4.83694696 -21.27879524 47 47 143
155.97428894 4.77392960 -20.84194374 47 47 143
156.07458496 4.86104488 -21.39068031 47 47 143
155.89808655 4.84007692 -20.83848763 47 47 143
155.96728516 4.87721109 -20.83427811 47 47 143
155.62507629 4.74683666 -20.84413338 47 47 143
155.69375610 4.75389433 -20.83689308 47 47 143
155.86764526 5.11920547 -20.83177757 47 47 143
155.91087341 5.24849367 -21.49870300 47 47 143
155.52220154 5.04187155 -21.43190193 47 47 143
155.61671448 5.12610817 -21.46091461 47 47 143
155.23159790 4.94045401 -21.34875298 47 47 143
155.31845093 5.00230789 -21.41842651 47 47 143
154.60830688 5.29047203 -21.51408195 47 47 143
154.64758301 5.35108280 -21.55831528 47 47 143
154.56475830 5.33183336 -21.54364777 47 47 143
153.31065369 4.87896538 -20.79152489 47 47 143
152.81851196 4.93489170 -21.36277390 47 47 143
155.21534729 5.32529163 -21.53416443 47 47 143
155.41397095 5.15772295 -21.47008896 47 47 143
154.90263367 5.20977688 -21.50009537 47 47 143
155.10444641 5.02656412 -21.42770958 47 47 143
154.58100891 5.09238195 -21.45266914 47 47 143
154.57666016 5.04782391 -21.02257538 47 47 143
155.98915100 5.19686890 -20.82934189 47 47 143
155.92301941 5.09115887 -20.84019852 47 47 143
156.06280518 4.96887970 -20.83612251 47 47 143
155.55918884 4.95041513 -21.19088554 47 47 143
155.80024719 4.84858799 -20.84404755 47 47 143
155.38772583 4.88159847 -20.83584023 47 47 143
156.08227539 4.91237545 -21.38296127 47 47 143
156.00317383 4.84819937 -20.83421898 47 47 143
155.63787842 4.78086758 -20.84384537 47 47 143
156.08435059 4.82222986 -21.12213707 47 47 143
156.03231812 4.81878471 -20.83316803 47 47 143
155.93586731 4.76372528 -20.84116364 47 47 143
156.08847046 5.12482357 -21.32953453 47 47 143
155.91392517 5.03690529 -20.83666420 47 47 143
155.98823547 5.10549498 -20.84746170 47 47 143
155.64758301 4.94120741 -20.83269882 47 47 143
155.58245850 4.93868160 -21.37783051 47 47 143
155.36555481 4.84037542 -20.83687210 47 47 143
155.45458984 4.87957668 -20.83650208 47 47 143
155.52124023 5.33729696 -21.53392410 47 47 143
155.09730530 5.20951653 -21.49452019 47 47 143
154.88043213 5.14608622 -21.46864319 47 47 143
155.01365662 5.24264097 -21.50851059 47 47 143
154.57255554 5.05545282 -21.37395287 47 47 143
154.68611145 5.12905502 -21.46729279 47 47 143
154.59259033 5.10238266 -21.45779228 47 47 143
152.80438232 5.36257553 -21.50301361 47 47 143
154.87753296 5.23835993 -21.49437141 47 47 143
154.65574646 5.14937401 -21.46664429 47 47 143
154.56042480 5.07860661 -21.17977524 47 47 143
155.76913452 5.24927855 -21.49756622 47 47 143
156.06181335 5.15145683 -20.84227180 47 47 143
155.47508240 5.13415813 -21.45718575 47 47 143
155.77233887 5.02437735 -20.96188545 47 47 143
155.17506409 5.01691246 -21.41115379 47 47 143
155.53421021 4.91680479 -20.82993889 47 47 143
155.34461975 4.83279705 -20.83433342 47 47 143
156.07334900 4.98080730 -21.16259384 47 47 143
156.05593872 4.91070032 -20.83890152 47 47 143
155.68038940 4.91796827 -20.82681465 47 47 143
155.79525757 4.79777908 -20.83255577 47 47 143
155.51072693 4.76770401 -20.83085251 47 47 143
155.87547302 4.78526402 -20.84142113 47 47 143
155.98237610 4.79110813 -20.82264519 47 47 143
155.87564087 4.73134089 -20.86110115 47 47 143
156.08175659 4.99949503 -21.48104095 47 47 143
155.93318176 4.94567442 -20.82777023 47 47 143
156.00012207 4.99656582 -20.83781242 47 47 143
155.66491699 4.84570026 -20.83092690 47 47 143
155.74003601 4.88179827 -20.82941818 47 47 143
155.46556091 4.76131344 -20.83090782 47 47 143
155.75843811 5.27410030 -21.50419426 47 47 143
155.55470276 5.20447159 -21.48945045 47 47 143
155.65547180 5.31050158 -21.52058601 47 47 143
155.25279236 5.09953880 -21.43655205 47 47 143
155.35995483 5.18874884 -21.46725845 47 47 143
154.93122864 4.99173784 -21.41290092 47 47 143
154.82756042 4.96967793 -21.40316010 47 47 143
154.02680969 5.35932159 -21.54493523 47 47 143
154.44476318 5.29663372 -21.50539017 47 47 143
152.77090454 5.04521275 -21.25944519 47 47 143
155.84524536 5.22590017 -21.49098587 47 47 143
155.49562073 5.19376230 -21.48119926 47 47 143
155.00880432 5.24055052 -21.49199677 47 47 143
155.19848633 5.07037878 -21.42591476 47 47 143
154.69526672 5.13097858 -21.44776344 47 47 143
154.88403320 4.94428635 -21.38670921 47 47 143
154.69375610 4.95669317 -20.83330154 47 47 143
156.07759094 5.08629417 -20.86912918 47 47 143
155.91331482 5.02162600 -20.82891273 47 47 143
156.04554749 4.90505791 -20.82557678 47 47 143
155.64979553 4.91711807 -20.82872581 47 47 143
155.78295898 4.78250980 -20.83330727 47 47 143
155.48455811 4.75472355 -20.82941628 47 47 143
156.07124329 4.82057333 -21.25340080 47 47 143
155.78546143 4.80297375 -20.82897949 47 47 143
156.07325745 4.78313780 -20.90932846 47 47 143
155.98538208 4.87294102 -20.82350349 47 47 143
156.07078552 4.90881491 -21.15199280 47 47 143
155.79574585 4.80918741 -20.83091927 47 47 143
155.86517334 4.83014345 -20.83474541 47 47 143
156.04891968 5.20715618 -21.25898552 47 47 143
156.00469971 5.21941423 -20.95814705 47 47 143
155.52151489 4.99019241 -21.39787102 47 47 143
155.61196899 5.08244228 -21.43764305 47 47 143
155.40489197 4.95514917 -20.82282257 47 47 143
155.31016541 4.96544075 -21.39868546 47 47 143
155.11291504 4.86338043 -20.82239342 47 47 143
154.81857300 5.31072712 -21.51541519 47 47 143
154.61637878 5.28323841 -21.50865364 47 47 143
154.52282715 5.27141953 -21.50030708 47 47 143
154.43399048 5.24968290 -21.48964500 47 47 143
152.72496033 5.15041018 -21.32822800 47 47 143
155.51234436 5.25921822 -21.48979950 47 47 143
155.30763245 5.17124701 -21.46700096 47 47 143
154.78987122 5.22299862 -21.49371529 47 47 143
154.99479675 5.03735876 -21.42263222 47 47 143
154.53439331 5.11345196 -21.30965424 47 47 143
154.71768188 4.87995768 -20.82399559 47 47 143
156.01373291 5.16415262 -20.82861328 47 47 143
155.56904602 5.09922647 -21.43765831 47 47 143
155.86625671 5.01838827 -20.82020950 47 47 143
155.27220154 4.99162769 -21.39838600 47 47 143
155.60095215 4.90687275 -20.81707382 47 47 143
155.30061340 4.88562298 -20.82231522 47 47 143
156.07691956 4.93762636 -21.46118927 47 47 143
156.00860596 4.87972736 -20.83003044 47 47 143
155.83300781 4.80962372 -20.83455086 47 47 143
156.06512451 4.81846952 -20.84829903 47 47 143
156.05223083 4.85167980 -20.82895851 47 47 143
155.95118713 4.81414557 -20.83602715 47 47 143
156.01852417 4.82808638 -20.83195496 47 47 143
156.07539368 5.10928965 -21.48121452 47 47 143
156.07464600 5.14308691 -20.86219406 47 47 143
155.74116516 4.97218895 -20.82799911 47 47 143
155.82112122 5.04330730 -20.82630730 47 47 143
155.46623230 4.88274670 -20.82249832 47 47 143
155.55397034 4.93869734 -20.81828880 47 47 143
155.17352295 4.78837776 -20.82908821 47 47 143
155.36367798 4.86511755 -20.82369614 47 47 143
155.33291626 5.29534054 -21.49767876 47 47 143
155.12815857 5.27400017 -21.50509453 47 47 143
154.91062927 5.20350361 -21.48711967 47 47 143
155.04260254 5.29470825 -21.51536751 47 47 143
154.58493042 5.09918213 -21.43457603 47 47 143
154.55911255 5.05896664 -21.03430367 47 47 143
152.53001404 5.34410095 -21.51906204 47 47 143
155.30747986 5.31032610 -21.51841164 47 47 143
154.68562317 5.32416010 -21.51707077 47 47 143
154.31365967 5.33152056 -21.51158714 47 47 143
154.52540588 5.12579823 -21.40707016 47 47 143
153.26170349 4.93128347 -20.79692841 47 47 143
155.94606018 5.21677303 -20.91529274 47 47 143
155.50321960 5.16708040 -21.45895386 47 47 143
155.79626465 5.06674099 -20.91197586 47 47 143
155.20703125 5.05979156 -21.41452026 47 47 143
155.55160522 4.96314096 -20.82034683 47 47 143
154.89303589 4.94849443 -21.38718414 47 47 143
155.17318726 4.80623198 -20.82284927 47 47 143
156.06095886 4.94255161 -20.83835983 47 47 143
155.88856506 4.87386656 -20.83359909 47 47 143
156.00588989 4.76330709 -20.83423233 47 47 143
155.42561340 4.77704477 -20.82832718 47 47 143
155.96470642 4.75525856 -20.83452988 47 47 143
155.96772766 4.80307484 -20.81729507 47 47 143
156.06491089 4.79070520 -21.07386589 47 47 143
156.06689453 5.01733589 -20.99604988 47 47 143
156.00213623 5.02811766 -20.82366943 47 47 143
156.06912231 5.09478045 -20.84583092 47 47 143
155.73846436 4.93213511 -20.82134056 47 47 143
155.81388855 4.98439360 -20.82091522 47 47 143
155.46209717 4.83115053 -20.82577705 47 47 143
155.54560852 4.86731005 -20.82181931 47 47 143
155.84657288 5.34825802 -21.52700043 47 47 143
155.43740845 5.21942091 -21.48129272 47 47 143
155.33876038 5.22974205 -21.49329185 47 47 143
155.01986694 5.09184456 -21.42908287 47 47 143
155.13772583 5.18811131 -21.46927643 47 47 143
154.69053650 4.99419165 -21.39365387 47 47 143
154.82098389 5.07299471 -21.42502975 47 47 143
154.58270264 4.96729469 -21.17469406 47 47 143
154.60192871 4.96151400 -20.97415161 47 47 143
154.53297424 5.35036516 -21.51952934 47 47 143
154.50553894 5.18497324 -21.38353157 47 47 143
155.82698059 5.35034847 -21.53648186 47 47 143
155.77006531 5.22281456 -21.49052048 47 47 143
155.43699646 5.19608116 -21.46949577 47 47 143
155.62644958 5.04267502 -21.41560364 47 47 143
155.13507080 5.07898951 -21.42733765 47 47 143
155.50448608 4.97046232 -20.82971382 47 47 143
154.82035828 4.96004868 -21.39295769 47 47 143
154.58210754 4.98374891 -21.14492607 47 47 143
155.93415833 5.05627346 -20.81894684 47 47 143
156.07156372 4.84111691 -21.40420723 47 47 143
155.77485657 4.91843033 -20.82422447 47 47 143
155.90385437 4.79414845 -20.82414627 47 47 143
155.50402832 4.81098986 -20.82629204 47 47 143
156.06468201 4.87720823 -20.85367012 47 47 143
156.06541443 4.77020884 -20.86338425 47 47 143
155.92572021 4.76612234 -20.83171272 47 47 143
155.98181152 4.90889931 -20.81760597 47 47 143
156.06726074 4.96591043 -21.16021347 47 47 143
155.79197693 4.85233116 -20.83194733 47 47 143
155.86277771 4.88573360 -20.83075333 47 47 143
155.60194397 4.77684689 -20.82922363 47 47 143
155.93957520 5.19899130 -20.81879044 47 47 143
155.60313416 5.10031271 -21.43196678 47 47 143
155.69435120 5.20963526 -21.48682404 47 47 143
155.29614258 5.00355148 -21.39919281 47 47 143
155.39617920 5.09530020 -21.43544388 47 47 143
155.09004211 4.96288967 -21.38650322 47 47 143
154.99510193 4.94255638 -21.35412216 47 47 143
154.22373962 5.28146076 -21.48762512 47 47 143
154.20005798 5.30765629 -21.49212074 47 47 143
152.72909546 5.14385462 -21.21065903 47 47 143
155.70046997 5.24510860 -21.48750687 47 47 143
155.34315491 5.21592855 -21.49396324 47 47 143
154.84803772 5.27011871 -21.50392342 47 47 143
155.04165649 5.09197521 -21.43270874 47 47 143
154.53303528 5.16011667 -21.44952774 47 47 143
154.72045898 4.96422005 -21.39467239 47 47 143
156.06626892 5.12774515 -21.31290627 47 47 143
156.06967163 5.04808378 -20.87571526 47 47 143
155.77742004 5.01391029 -20.91630554 47 47 143
155.93484497 4.89728498 -20.83039093 47 47 143
155.53411865 4.91730213 -20.81954765 47 47 143
155.67121887 4.77561378 -20.82596588 47 47 143
155.15237427 4.76742458 -20.82919312 47 47 143
155.93750000 4.88262606 -20.81719589 47 47 143
155.75898743 4.81770182 -20.82380104 47 47 143
156.06710815 4.81292486 -20.87135506 47 47 143
156.05244446 4.88035727 -20.82334518 47 47 143
155.87229919 4.81786680 -20.83607292 47 47 143
155.94134521 4.84556103 -20.82295609 47 47 143
155.76405334 4.77152157 -20.82746887 47 47 143
156.00680542 5.12001514 -20.82067680 47 47 143
156.05688477 5.25550747 -21.50622749 47 47 143
155.82315063 5.09026003 -20.84070778 47 47 143
155.55441284 4.97313929 -20.83360863 47 47 143
155.47821045 4.99178028 -21.40327835 47 47 143
155.27294922 4.88334227 -20.82433510 47 47 143
155.36802673 4.93994474 -20.82173729 47 47 143
155.08323669 4.83070135 -20.81161880 47 47 143
155.19557190 5.37434769 -21.57952881 47 47 143
154.90074158 5.32123089 -21.52706718 47 47 143
154.80630493 5.31533098 -21.52373505 47 47 143
154.50300598 5.18764019 -21.37243271 47 47 143
154.51052856 5.17943144 -21.17560196 47 47 143
152.74880981 5.05337620 -21.27687454 47 47 143
154.92378235 5.33295965 -21.52634621 47 47 143
154.55676270 5.33439636 -21.53029442 47 47 143
154.75776672 5.14109325 -21.44969749 47 47 143
154.22879028 5.22477818 -21.47655106 47 47 143
154.60401917 4.93532228 -21.34523392 47 47 143
156.03279114 5.21471739 -20.94756508 47 47 143
155.88575745 5.15335751 -20.81994820 47 47 143
156.02728271 5.03369856 -20.82626915 47 47 143
155.45106506 4.99783516 -21.40650177 47 47 143
155.76528931 4.91458941 -20.82959557 47 47 143
155.34919739 4.94468927 -20.82340431 47 47 143
155.27435303 4.81012583 -20.82756042 47 47 143
155.96833801 4.95724010 -20.82434845 47 47 143
155.79034424 4.89137840 -20.83374786 47 47 143
155.89910889 4.78618240 -20.83307457 47 47 143
155.42761230 4.75979233 -20.82990074 47 47 143
155.96083069 4.75347376 -20.83014679 47 47 143
156.03291321 4.83352518 -20.83700752 47 47 143
155.85807800 4.76595783 -20.83411598 47 47 143
156.06835938 5.04407120 -20.97263908 47 47 143
156.00083923 5.05518341 -20.82436562 47 47 143
156.06781006 5.12633276 -20.83962059 47 47 143
155.73568726 4.95841885 -20.82770538 47 47 143
155.81027222 5.01440811 -20.83747101 47 47 143
155.46060181 4.85903072 -20.82761192 47 47 143
155.54356384 4.90022421 -20.82884026 47 47 143
155.26089478 4.77867222 -20.82914543 47 47 143
155.32530212 5.23365784 -21.48546410 47 47 143
155.22686768 5.24303150 -21.49526596 47 47 143
154.89620972 5.10448265 -21.44324112 47 47 143
155.01998901 5.19975424 -21.48827171 47 47 143
154.57131958 5.00893545 -21.38596153 47 47 143
154.69674683 5.08522129 -21.44488144 47 47 143
154.59875488 5.05672455 -21.43453979 47 47 143
153.03213501 5.34008312 -21.52684402 47 47 143
154.83973694 5.27868223 -21.50903702 47 47 143
154.19479370 5.31578493 -21.50211143 47 47 143
153.22846985 4.92525864 -20.79054832 47 47 143
155.88677979 5.23707104 -21.48595428 47 47 143
155.41775513 5.26167965 -21.49092674 47 47 143
155.59576416 5.11438942 -21.44432259 47 47 143
155.11349487 5.15294027 -21.46110344 47 47 143
155.29768372 4.99015427 -21.40008736 47 47 143
154.80265808 5.04301929 -21.42063713 47 47 143
155.33119202 4.86569595 -20.82995987 47 47 143
156.06423950 5.08111763 -21.12396622 47 47 143
155.85815430 5.01107073 -20.81713486 47 47 143
155.97238159 4.90224409 -20.83137512 47 47 143
155.59094238 4.91451120 -20.82327080 47 47 143
155.71006775 4.78853226 -20.82717514 47 47 143
155.21687317 4.77732706 -20.82644463 47 47 143
155.88986206 4.80854225 -20.84205246 47 47 143
156.00866699 4.80396986 -20.82533455 47 47 143
155.98666382 4.75584507 -20.83150482 47 47 143
156.05848694 4.97263527 -20.83596611 47 47 143
155.80459595 4.86753035 -20.83029747 47 47 143
155.87637329 4.91429758 -20.82326889 47 47 143
155.52937317 4.77446079 -20.83189201 47 47 143
155.69015503 4.83576250 -20.82879448 47 47 143
156.01832581 5.31671667 -21.52120972 47 47 143
155.62127686 5.13394833 -21.45447922 47 47 143
155.71647644 5.24732590 -21.49632835 47 47 143
155.31549072 5.03658962 -21.41774559 47 47 143
155.41780090 5.13351488 -21.45514488 47 47 143
155.02084351 4.94468212 -21.33030128 47 47 143
155.21992493 5.07489395 -21.42731857 47 47 143
154.80854797 4.87233210 -20.84151459 47 47 143
154.72967529 4.84464359 -20.83296394 47 47 143
154.22984314 5.35363674 -21.53880119 47 47 143
154.16734314 5.27255344 -21.49233627 47 47 143
153.22796631 4.87284327 -20.81918335 47 47 143
155.72750854 5.22682571 -21.49563789 47 47 143
155.23103333 5.25687504 -21.50659370 47 47 143
155.43095398 5.09477425 -21.44291878 47 47 143
154.92291260 5.13948488 -21.46256828 47 47 143
155.12451172 4.96194077 -21.39976692 47 47 143
154.60166931 5.02025986 -21.42027855 47 47 143
156.06552124 5.18717670 -21.28635025 47 47 143
155.88395691 5.11824369 -20.82265854 47 47 143
156.06811523 4.93250895 -21.14343071 47 47 143
155.71853638 4.97301912 -20.85968590 47 47 143
155.86067200 4.84781742 -20.83941078 47 47 143
155.45541382 4.86918783 -20.83118248 47 47 143
155.15357971 4.85378885 -20.83008385 47 47 143
156.04272461 4.85758066 -20.82432556 47 47 143
155.86543274 4.78537369 -20.84114456 47 47 143
156.06752014 4.80933046 -20.95618248 47 47 143
156.06263733 4.89798975 -20.83860588 47 47 143
155.96646118 4.87336063 -20.82893562 47 47 143
156.03054810 4.90296745 -20.83541489 47 47 143
155.77648926 4.79654408 -20.83644676 47 47 143
156.06213379 5.20059299 -21.11486053 47 47 143
155.93780518 5.15354347 -20.82928848 47 47 143
155.51034546 4.97733259 -21.39880180 47 47 143
155.59773254 5.06632042 -21.44215584 47 47 143
155.39332581 4.94295979 -20.82939720 47 47 143
155.30267334 4.95208883 -21.38438225 47 47 143
155.10339355 4.85086727 -20.82346725 47 47 143
154.92761230 5.31441450 -21.52257538 47 47 143
154.72451782 5.28964567 -21.51691437 47 47 143
154.50563049 5.22003984 -21.47799301 47 47 143
154.51922607 5.17526817 -21.00839424 47 47 143
152.71180725 5.17265606 -21.28093147 47 47 143
155.21517944 5.29107332 -21.52003860 47 47 143
154.85884094 5.27748299 -21.51502228 47 47 143
155.06262207 5.09657001 -21.44906235 47 47 143
154.53977966 5.15935850 -21.46159935 47 47 143
154.73709106 4.96070290 -21.40798378 47 47 143
156.05108643 5.20758581 -21.49797630 47 47 143
156.07861328 5.12563133 -20.92634392 47 47 143
155.81224060 5.10104561 -20.84412575 47 47 143
155.95614624 4.97840166 -20.83475304 47 47 143
155.38308716 4.94363213 -21.35769844 47 47 143
155.69282532 4.85894585 -20.83027458 47 47 143
155.38595581 4.83192587 -20.83245659 47 47 143
156.06278992 4.97507048 -20.83887100 47 47 143
155.98451233 4.88217258 -20.83605957 47 47 143
155.80905151 4.81199646 -20.84176826 47 47 143
156.06527710 4.78649235 -21.34221840 47 47 143
155.86418152 4.70970583 -20.89764023 47 47 143
156.07234192 4.84292603 -21.06362534 47 47 143
155.86001587 4.78013897 -20.84205818 47 47 143
156.07601929 5.06066227 -21.46865273 47 47 143
155.91091919 5.02364874 -20.82582664 47 47 143
155.98411560 5.10269117 -20.83490372 47 47 143
155.64167786 4.93493080 -20.82975578 47 47 143
155.57647705 4.94235325 -21.36828232 47 47 143
155.35983276 4.84251642 -20.83238220 47 47 143
155.44749451 4.89087963 -20.83256721 47 47 143
155.16223145 4.78217554 -20.83535004 47 47 143
155.50134277 5.34608507 -21.55578613 47 47 143
155.20060730 5.29543352 -21.52451134 47 47 143
155.10693359 5.29212523 -21.51374626 47 47 143
154.64688110 5.09087038 -21.43802071 47 47 143
154.78659058 5.17865944 -21.46941757 47 47 143
154.56188965 5.06878281 -21.18334389 47 47 143
154.55378723 5.08515549 -21.26596642 47 47 143
155.19052124 5.31192684 -21.52296829 47 47 143
154.70890808 5.25407314 -21.50616455 47 47 143
154.33285522 5.25320435 -21.50450706 47 47 143
154.57543945 5.02596951 -21.12666702 47 47 143
156.06361389 5.23473787 -21.51635742 47 47 143
156.00086975 5.18859339 -20.82871819 47 47 143
155.41145325 5.17797279 -21.46719742 47 47 143
155.58496094 5.03113985 -21.41897011 47 47 143
155.10647583 5.06791830 -21.43424034 47 47 143
155.46961975 4.96677542 -20.83544922 47 47 143
154.79393005 4.95724821 -21.39570427 47 47 143
156.07502747 5.02457333 -21.35413933 47 47 143
155.89973450 4.97669601 -20.82714844 47 47 143
156.06954956 4.79817057 -21.10860062 47 47 143
155.73455811 4.83762360 -20.83326149 47 47 143
155.44796753 4.81080914 -20.83548737 47 47 143
156.07324219 4.80642748 -20.86412811 47 47 143
156.07417297 4.83429432 -20.87626266 47 47 143
156.05595398 4.81215334 -20.84019661 47 47 143
155.88146973 4.73824167 -20.83795929 47 47 143
156.07371521 5.03377342 -21.07712555 47 47 143
155.85981750 4.94088173 -20.83570480 47 47 143
155.93214417 5.00380135 -20.83371735 47 47 143
155.59002686 4.85215664 -20.82985115 47 47 143
155.66705322 4.89754057 -20.83056641 47 47 143
155.30430603 4.75606155 -20.83390617 47 47 143
155.47586060 4.81905317 -20.84329796 47 47 143
155.76092529 5.35296106 -21.55141068 47 47 143
155.35408020 5.17105484 -21.46804237 47 47 143
155.55892944 5.35599518 -21.56392097 47 47 143
155.15071106 5.14180994 -21.46553993 47 47 143
155.26031494 5.23398972 -21.50555801 47 47 143
154.82461548 5.03432703 -21.43681717 47 47 143
154.95040894 5.10955143 -21.45885086 47 47 143
154.61486816 4.97550106 -21.40557289 47 47 143
153.50051880 5.34930944 -21.55196762 47 47 143
152.74996948 5.10120153 -21.31175041 47 47 143
154.46240234 5.20868969 -21.43250275 47 47 143
155.95063782 5.32460546 -21.53509331 47 47 143
155.75794983 5.24341869 -21.50286484 47 47 143
155.27835083 5.27449512 -21.51632309 47 47 143
155.46211243 5.11895800 -21.45841026 47 47 143
154.97184753 5.16413260 -21.47350883 47 47 143
155.15908813 4.99386787 -21.41536522 47 47 143
154.65565491 5.05429316 -21.43325424 47 47 143
154.58876038 5.00634766 -21.11945724 47 47 143
155.92713928 5.06703472 -20.83281898 47 47 143
156.07522583 4.86179495 -21.34576988 47 47 143
155.76866150 4.92954206 -20.83557701 47 47 143
155.89654541 4.80360746 -20.84302521 47 47 143
155.49696350 4.82172441 -20.83786011 47 47 143
156.07273865 4.85656786 -21.30288887 47 47 143
155.97239685 4.79705954 -20.84975052 47 47 143
156.00439453 4.79700994 -20.82692719 47 47 143
155.87213135 4.68516064 -20.93641472 47 47 143
156.07673645 4.95843887 -21.09658432 47 47 143
155.86993408 4.87831640 -20.83977890 47 47 143
155.93981934 4.91674995 -20.83787537 47 47 143
155.59965515 4.77755547 -20.83896255 47 47 143
155.99330139 5.21878815 -21.46541595 47 47 143
155.78645325 5.19852209 -21.48115730 47 47 143
155.48709106 5.05688620 -21.42878914 47 47 143
155.58326721 5.15891647 -21.46860313 47 47 143
155.18220520 4.96120548 -21.38084030 47 47 143
155.28175354 5.04404593 -21.42642975 47 47 143
155.07354736 4.96534872 -21.40205765 47 47 143
154.43721008 5.32710171 -21.52703285 47 47 143
154.26208496 5.31526470 -21.51592827 47 47 143
154.19635010 5.35118341 -21.51686096 47 47 143
155.77938843 5.30529118 -21.52123833 47 47 143
155.17764282 5.29319382 -21.52827835 47 47 143
155.38024902 5.12900925 -21.46035576 47 47 143
154.86973572 5.17709160 -21.47836304 47 47 143
155.07156372 4.99638128 -21.41746521 47 47 143
154.55920410 5.05938721 -21.40857697 47 47 143
156.03286743 5.21709585 -21.35240555 47 47 143
155.97171021 5.10770321 -20.83278847 47 47 143
155.52407837 5.03558922 -21.42289162 47 47 143
155.82005310 4.96008873 -20.83103371 47 47 143
155.40699768 4.98286486 -20.86550140 47 47 143
155.55047607 4.84668875 -20.83303261 47 47 143
155.36180115 4.76615143 -20.83853340 47 47 143
156.04399109 4.87618589 -20.83117485 47 47 143
155.86564636 4.80365610 -20.84611893 47 47 143
156.07337952 4.80998516 -20.99371147 47 47 143
156.07600403 4.83078814 -21.48147964 47 47 143
155.91125488 4.82282352 -20.83875847 47 47 143
155.97666931 4.84685469 -20.83109093 47 47 143
155.72203064 4.75083590 -20.83532143 47 47 143
156.07727051 5.15138531 -21.20160294 47 47 143
156.04354858 5.16868734 -20.83195305 47 47 143
155.61476135 4.95941067 -21.14630890 47 47 143
155.63240051 5.01527166 -21.42186546 47 47 143
155.42373657 4.90266085 -20.83150101 47 47 143
155.51097107 4.96142435 -20.83769226 47 47 143
155.13087463 4.80818701 -20.83389282 47 47 143
155.32290649 4.88978338 -20.83819199 47 47 143
155.07199097 5.27147388 -21.51121712 47 47 143
155.08413696 5.34865284 -21.56578255 47 47 143
154.88146973 5.27380037 -21.51300812 47 47 143
154.55671692 5.10121441 -21.13941956 47 47 143
154.67839050 5.21618509 -21.49434662 47 47 143
153.37870789 5.36194849 -21.51149368 47 47 143
155.06707764 5.32386255 -21.53491592 47 47 143
154.85583496 5.24092102 -21.50363541 47 47 143
154.33299255 5.32168245 -21.52442741 47 47 143
154.53915405 5.11663103 -21.43216133 47 47 143
153.28540039 4.91946316 -20.80164909 47 47 143
155.72180176 5.24037123 -21.49358559 47 47 143
156.07771301 5.08785963 -21.14054489 47 47 143
155.55957031 5.08015299 -21.44633484 47 47 143
155.86994934 4.99332285 -20.84261513 47 47 143
155.26113892 4.96314812 -21.40589905 47 47 143
155.60208130 4.87206459 -20.84050179 47 47 143
155.41835022 4.79051399 -20.83170319 47 47 143
156.08204651 4.92494106 -21.44538879 47 47 143
155.81854248 4.92252016 -20.83731651 47 47 143
156.03175354 4.77868414 -20.84895515 47 47 143
155.45515442 4.79054403 -20.83658791 47 47 143
155.91026306 4.78313255 -20.83277512 47 47 143
155.99649048 4.81599665 -20.83392525 47 47 143
156.07492065 4.79197836 -21.21003914 47 47 143
155.96340942 4.76582098 -20.83869743 47 47 143
156.03591919 5.04406118 -20.83413315 47 47 143
155.77522278 4.93067455 -20.84165382 47 47 143
155.85334778 4.99388075 -20.83034897 47 47 143
155.50028992 4.83888817 -20.83800697 47 47 143
155.58386230 4.88584280 -20.83236885 47 47 143
155.30778503 4.77846575 -20.83576584 47 47 143
155.88262939 5.36608887 -21.53956985 47 47 143
155.58074951 5.31876040 -21.53053284 47 47 143
155.16307068 5.14114046 -21.45466423 47 47 143
155.27854919 5.24621010 -21.49642181 47 47 143
154.83668518 5.04315329 -21.42787743 47 47 143
154.96348572 5.13133764 -21.46094513 47 47 143
154.58972168 4.96269321 -21.21533775 47 47 143
154.75912476 5.06797504 -21.43733406 47 47 143
154.59301758 4.97265863 -21.07394409 47 47 143
152.73226929 5.16813660 -21.35901451 47 47 143
154.45727539 5.28836441 -21.50801468 47 47 143
154.53526306 5.13467169 -21.17452621 47 47 143
155.60853577 5.33827972 -21.55258179 47 47 143
155.79077148 5.20177650 -21.48340034 47 47 143
155.31399536 5.23153591 -21.50170517 47 47 143
155.49505615 5.07721043 -21.44257164 47 47 143
155.01008606 5.12214804 -21.45638847 47 47 143
155.19729614 4.95324898 -21.38884926 47 47 143
154.69506836 5.01162863 -21.41573524 47 47 143
155.13807678 4.78486824 -20.83303833 47 47 143
156.03883362 5.00272179 -20.83425903 47 47 143
155.76110840 4.97272682 -20.83969498 47 47 143
155.87934875 4.85720730 -20.84044266 47 47 143
155.49156189 4.87445927 -20.83148193 47 47 143
155.41191101 4.75294495 -20.83797646 47 47 143
156.06118774 4.81630516 -20.83254814 47 47 143
156.07649231 4.81804752 -20.86462593 47 47 143
155.89463806 4.73439837 -20.83822632 47 47 143
155.95425415 4.91812181 -20.82193184 47 47 143
156.01832581 4.97114182 -20.83424950 47 47 143
155.68232727 4.82601357 -20.83193779 47 47 143
155.75390625 4.86388016 -20.83676529 47 47 143
155.48800659 4.76035738 -20.83837509 47 47 143
155.87136841 5.22658205 -21.49058533 47 47 143
155.86508179 5.31765413 -21.52019501 47 47 143
155.56887817 5.17157459 -21.47744370 47 47 143
155.66488647 5.27365112 -21.51300240 47 47 143
155.26492310 5.06536150 -21.43423653 47 47 143
155.37001038 5.15077686 -21.46120453 47 47 143
155.05595398 5.01185274 -21.41652870 47 47 143
154.95428467 4.98281860 -21.41351128 47 47 143
154.19418335 5.33192205 -21.51455307 47 47 143
154.37915039 5.30936432 -21.51261711 47 47 143
152.97621155 4.95237589 -21.08063889 47 47 143
155.25663757 5.35380507 -21.55243111 47 47 143
155.45039368 5.19723129 -21.47645378 47 47 143
154.95495605 5.24553061 -21.49807358 47 47 143
155.14588928 5.07264709 -21.43224907 47 47 143
154.63774109 5.13525820 -21.45866203 47 47 143
154.83139038 4.94636345 -21.38963890 47 47 143
156.01805115 5.14474249 -20.83231354 47 47 143
155.94926453 5.04238081 -20.83821487 47 47 143
156.07728577 4.92462397 -20.86340523 47 47 143
155.68812561 4.93880701 -20.82953453 47 47 143
155.82188416 4.80649090 -20.83932686 47 47 143
155.41285706 4.82950163 -20.83470917 47 47 143
156.07260132 4.90712452 -20.85152245 47 47 143
156.07720947 4.79169989 -20.87205505 47 47 143
155.63265991 4.74845219 -20.83536530 47 47 143
156.07582092 4.86445713 -21.46511269 47 47 143
155.90905762 4.85064745 -20.83789825 47 47 143
155.97625732 4.88710213 -20.83195686 47 47 143
155.63694763 4.75764847 -20.83891487 47 47 143
155.79043579 4.80443144 -20.83586311 47 47 143
156.00492859 5.25319481 -21.49301147 47 47 143
155.86308289 5.14913607 -20.83007431 47 47 143
155.80632019 5.20677757 -21.47871780 47 47 143
155.41729736 5.00241899 -21.41135597 47 47 143
155.51342773 5.08240128 -21.43282700 47 47 143
155.31532288 4.95763493 -20.82730103 47 47 143
154.80830383 5.33572626 -21.53734207 47 47 143
154.43083191 5.21731758 -21.33221054 47 47 143
154.27923584 5.20809937 -21.44742012 47 47 143
153.42486572 5.35147429 -21.51260567 47 47 143
152.78306580 4.97288656 -21.26451492 47 47 143
155.28706360 5.27998400 -21.49862671 47 47 143
154.93009949 5.26374197 -21.50381851 47 47 143
155.13354492 5.08600712 -21.43723679 47 47 143
154.60969543 5.14705896 -21.45953560 47 47 143
154.81407166 4.95259619 -21.39086151 47 47 143
155.93028259 5.21623230 -21.26372910 47 47 143
155.95141602 5.13337231 -20.82852936 47 47 143
156.08110046 5.01239061 -20.87966156 47 47 143
155.52886963 4.97527027 -21.40433121 47 47 143
155.83032227 4.89868689 -20.83524895 47 47 143
155.41812134 4.92382860 -20.82678223 47 47 143
155.22943115 4.85087252 -20.82684326 47 47 143
156.01881409 4.94294453 -20.82701492 47 47 143
155.93823242 4.84671545 -20.83662224 47 47 143
155.76150513 4.77616930 -20.83697891 47 47 143
156.07473755 4.78793001 -20.86031914 47 47 143
155.98274231 4.83292961 -20.82869720 47 47 143
156.07545471 4.84414864 -21.11070824 47 47 143
155.87100220 4.78066111 -20.83123589 47 47 143
156.08024597 5.15978289 -21.49560738 47 47 143
155.93296814 5.07426691 -20.82299423 47 47 143
156.00714111 5.14960146 -20.82374001 47 47 143
155.65753174 4.97498846 -20.85421562 47 47 143
155.59393311 4.98432350 -21.40198135 47 47 143
155.38664246 4.87774038 -20.83007240 47 47 143
155.47761536 4.92440271 -20.82074356 47 47 143
155.18733215 4.80179787 -20.83075905 47 47 143
155.01167297 5.22269869 -21.49406433 47 47 143
154.91833496 5.22882891 -21.49662590 47 47 143
155.04602051 5.32146740 -21.53529549 47 47 143
154.58911133 5.12381363 -21.45088959 47 47 143
154.55735779 5.08184719 -21.05699348 47 47 143
152.66555786 5.19968987 -21.40083122 47 47 143
155.05151367 5.23106432 -21.49406815 47 47 143
154.83860779 5.14331913 -21.45925903 47 47 143
154.31510925 5.21910381 -21.45498276 47 47 143
153.20930481 4.94354391 -20.79283714 47 47 143
155.80569458 5.21376991 -21.49069786 47 47 143
156.08372498 5.12050247 -20.87726212 47 47 143
155.51472473 5.09868050 -21.44533539 47 47 143
155.83467102 5.00753117 -20.82945824 47 47 143
155.21417236 4.98095369 -21.40252876 47 47 143
155.56352234 4.88705587 -20.83201027 47 47 143
155.25079346 4.86549997 -20.82517242 47 47 143
156.05381775 5.03028440 -20.82851028 47 47 143
155.98051453 4.93376207 -20.83258057 47 47 143
155.70458984 4.90362597 -20.83055687 47 47 143
155.81707764 4.78686428 -20.83578873 47 47 143
156.07162476 4.80374241 -21.41377449 47 47 143
155.81121826 4.75597477 -20.83580399 47 47 143
156.07099915 4.77288532 -21.32232285 47 47 143
156.05351257 4.78538990 -20.83754349 47 47 143
155.96688843 4.96292448 -20.82454872 47 47 143
156.03456116 5.02813864 -20.83179092 47 47 143
155.69795227 4.87324142 -20.82786369 47 47 143
155.77085876 4.92221212 -20.83677483 47 47 143
155.41781616 4.77927876 -20.83181381 47 47 143
155.49864197 4.81215858 -20.83422470 47 47 143
155.79862976 5.27609205 -21.50052071 47 47 143
155.49385071 5.17903662 -21.46473312 47 47 143
155.28753662 5.11493969 -21.44038582 47 47 143
155.39114380 5.21946096 -21.49573898 47 47 143
154.96578979 5.01646948 -21.41758347 47 47 143
155.08395386 5.10462570 -21.44903183 47 47 143
154.86373901 4.96941328 -20.90748978 47 47 143
154.88078308 5.04066515 -21.42449760 47 47 143
154.80230713 4.96689034 -20.88495445 47 47 143
152.77766418 5.04329729 -21.32308769 47 47 143
153.41696167 5.36776066 -21.53885651 47 47 143
155.83651733 5.30170155 -21.51092339 47 47 143
155.50007629 5.27211761 -21.50355721 47 47 143
155.83848572 5.16071129 -20.83849144 47 47 143
155.19848633 5.15491867 -21.46202660 47 47 143
155.39509583 4.99141026 -21.40468216 47 47 143
154.88790894 5.03637362 -21.42299652 47 47 143
155.29290771 4.92309570 -20.82532883 47 47 143
156.07797241 5.13753462 -20.88406944 47 47 143
155.83108521 5.04809666 -20.82150841 47 47 143
155.95196533 4.93679237 -20.82257271 47 47 143
155.56361389 4.95148468 -20.82217407 47 47 143
155.68943787 4.82394886 -20.81992340 47 47 143
155.39250183 4.79502010 -20.83338165 47 47 143
156.07366943 4.81481695 -21.25611687 47 47 143
155.78886414 4.79527903 -20.83323288 47 47 143
156.07011414 4.79944944 -20.85155487 47 47 143
156.05276489 4.92518568 -20.82662773 47 47 143
155.87673950 4.86444998 -20.82927895 47 47 143
155.94410706 4.90629148 -20.82461548 47 47 143
155.60375977 4.77107620 -20.83023834 47 47 143
155.75871277 4.82582760 -20.83175278 47 47 143
155.98362732 5.25174093 -21.49301720 47 47 143
155.87770081 5.25415850 -21.49389648 47 47 143
155.58493042 5.11044455 -21.44778442 47 47 143
155.67668152 5.20664310 -21.48493767 47 47 143
155.28048706 5.00386715 -21.40839958 47 47 143
155.38165283 5.08246851 -21.43598175 47 47 143
155.17842102 4.96482801 -20.85813522 47 47 143
154.57919312 5.36476421 -21.55808258 47 47 143
154.38128662 5.31909084 -21.52090645 47 47 143
154.24571228 5.35543537 -21.54166031 47 47 143
152.76678467 5.02433109 -21.33378792 47 47 143
155.32266235 5.32969284 -21.52973557 47 47 143
155.52375793 5.17338467 -21.46717262 47 47 143
155.01300049 5.21238708 -21.49664307 47 47 143
155.22291565 5.04073954 -21.40952301 47 47 143
154.70025635 5.09441280 -21.44168663 47 47 143
154.54457092 5.12459040 -21.04177094 47 47 143
156.05520630 5.20030212 -20.82967186 47 47 143
155.99119568 5.10102415 -20.82702446 47 47 143
155.54824829 5.02563906 -21.41236305 47 47 143
155.83564758 4.95377302 -20.83438110 47 47 143
155.43371582 4.97698355 -20.84174347 47 47 143
155.56883240 4.84041452 -20.82795715 47 47 143
155.38235474 4.75958300 -20.83215332 47 47 143
156.04939270 4.87062263 -20.82928658 47 47 143
155.87419128 4.79946041 -20.83287621 47 47 143
156.08079529 4.76452112 -21.54138565 47 47 143
156.07052612 4.84917545 -21.41687012 47 47 143
155.89883423 4.83261967 -20.82946205 47 47 143
155.96481323 4.86111641 -20.82384491 47 47 143
155.70678711 4.76134682 -20.83799744 47 47 143
156.06962585 5.18384552 -21.09600830 47 47 143
156.02320862 5.19600344 -20.82318687 47 47 143
155.61373901 5.02298641 -21.41550255 47 47 143
155.84136963 5.14627409 -20.85523605 47 47 143
155.48710632 4.97505856 -20.84456062 47 47 143
155.40380859 4.98172998 -21.40506363 47 47 143
155.20924377 4.87712336 -20.82276535 47 47 143
155.10826111 4.84398508 -20.82230568 47 47 143
155.05667114 5.36446142 -21.53722191 47 47 143
154.73165894 5.26079226 -21.49500465 47 47 143
154.53341675 5.14654684 -21.13022995 47 47 143
154.65277100 5.26908398 -21.50241089 47 47 143
152.53656006 5.24737740 -21.45029449 47 47 143
155.37670898 5.29801178 -21.51480293 47 47 143
154.75227356 5.30595875 -21.52248955 47 47 143
154.95977783 5.12022638 -21.44947243 47 47 143
154.50094604 5.19537115 -21.32890701 47 47 143
154.55809021 5.05479574 -21.03799438 47 47 143
156.06678772 5.16415119 -21.14259911 47 47 143
155.81036377 5.14483738 -20.94548416 47 47 143
155.98220825 5.02991199 -20.83353615 47 47 143
155.39526367 4.99609804 -21.40992737 47 47 143
155.71980286 4.91072893 -20.82784081 47 47 143
155.29803467 4.94262028 -20.82731247 47 47 143
154.78240967 4.86158180 -20.82976341 47 47 143
156.01617432 4.91653061 -20.83838654 47 47 143
155.84390259 4.84774542 -20.83379745 47 47 143
155.56338501 4.81799316 -20.82829666 47 47 143
156.06637573 4.78544092 -20.99554634 47 47 143
156.00761414 4.82800770 -20.82660675 47 47 143
156.07029724 4.80008078 -21.30580902 47 47 143
155.89520264 4.76681232 -20.83273125 47 47 143
155.96003723 5.01113272 -20.82559586 47 47 143
156.07298279 5.12832212 -21.04390335 47 47 143
155.77528381 4.97150421 -20.83579063 47 47 143
155.85124207 5.03048086 -20.83369064 47 47 143
155.50234985 4.87180805 -20.83273888 47 47 143
155.58569336 4.91655922 -20.82719421 47 47 143
155.30659485 4.80042362 -20.83146095 47 47 143
155.57046509 5.31009626 -21.51489449 47 47 143
155.36759949 5.29156733 -21.51812935 47 47 143
155.26817322 5.29109287 -21.51965523 47 47 143
154.94725037 5.15192890 -21.46110153 47 47 143
155.07084656 5.24001074 -21.49447250 47 47 143
154.61627197 5.04484224 -21.42320824 47 47 143
154.57617188 5.00618219 -21.04777527 47 47 143
152.94395447 5.34815645 -21.52588081 47 47 143
154.97676086 5.31757689 -21.52745628 47 47 143
154.48828125 5.26483488 -21.49841690 47 47 143
154.48684692 5.19970560 -21.05667114 47 47 143
155.72232056 5.36113644 -21.56622314 47 47 143
156.06791687 5.19175339 -21.35032654 47 47 143
155.57225037 5.20001984 -21.47906685 47 47 143
155.89469910 5.10159636 -20.82693863 47 47 143
155.27705383 5.08443451 -21.42812920 47 47 143
155.61915588 4.97983456 -20.85701752 47 47 143
154.96627808 4.96461391 -21.39607430 47 47 143
154.60585022 4.95902061 -21.39207077 47 47 143
156.03182983 5.06292486 -20.82924652 47 47 143
155.96000671 4.96489239 -20.83002090 47 47 143
156.07505798 4.84934902 -20.87144470 47 47 143
155.69555664 4.85989857 -20.82747459 47 47 143
155.40533447 4.83479166 -20.83354759 47 47 143
156.06736755 4.78289223 -21.30439949 47 47 143
155.79237366 4.76725578 -20.83290863 47 47 143
156.06427002 4.81315279 -20.83291626 47 47 143
155.96417236 4.75345087 -20.83935738 47 47 143
156.08511353 5.00090313 -21.52524185 47 47 143
155.94120789 4.94946814 -20.82904816 47 47 143
156.00811768 5.00039053 -20.84045792 47 47 143
155.67396545 4.84972048 -20.83168221 47 47 143
155.74742126 4.88513327 -20.83468246 47 47 143
155.47383118 4.76487684 -20.83261871 47 47 143
155.76760864 5.27108240 -21.50844002 47 47 143
155.56875610 5.20129871 -21.48129654 47 47 143
155.66519165 5.30780411 -21.51922417 47 47 143
